-0.788487 -0.224169 -0.563733 
-0.459563 0.864247 0.065638 
0.090748 -0.967005 0.171481 
-0.357331 0.870350 0.270428 
-0.288637 -0.551743 -0.766321 
0.947084 0.101587 0.129554 
-0.605336 0.773282 -0.049396 
0.195617 0.917723 -0.235003 
-0.638079 -0.755376 0.112951 
-0.537503 0.524667 -0.634925 
-0.688839 0.457317 -0.543111 
0.305886 0.667622 -0.628772 
-0.417432 0.689451 -0.558005 
0.507780 -0.533199 0.639554 
0.748776 0.255292 0.551058 
-0.634452 -0.007991 -0.760992 
0.419440 0.597931 0.638321 
-0.009636 0.750015 -0.619013 
-0.465474 -0.576541 -0.662572 
-0.572741 -0.239294 -0.767713 
0.136830 0.959224 0.025156 
-0.887589 -0.244141 -0.382034 
-0.560319 -0.553568 0.603067 
0.903619 0.325460 0.005753 
0.481725 0.644076 0.535753 
-0.841443 -0.536169 0.029976 
-0.598111 0.072561 -0.782156 
0.597997 -0.428554 0.634733 
0.071042 -0.091976 0.972495 
-0.124517 -0.324818 -0.917391 
0.822112 -0.440348 0.265148 
0.813117 0.181591 -0.482497 
-0.468806 -0.578640 0.655574 
0.037565 0.973725 0.031669 
-0.966735 0.104899 -0.209217 
-0.760863 -0.526526 0.374526 
0.177785 0.876371 0.364706 
0.428407 -0.818451 -0.316882 
-0.302527 0.420802 0.833259 
-0.669119 0.095967 -0.725202 
0.580474 0.272427 -0.722148 
0.234611 0.236557 -0.913911 
0.173565 -0.655589 0.708628 
-0.676495 0.658253 -0.275199 
0.962383 -0.012283 -0.002829 
-0.688052 0.706973 -0.033284 
0.288593 0.139006 0.920858 
-0.003883 0.967772 -0.110315 
-0.374166 -0.264703 0.875735 
-0.442032 -0.655579 0.600548 
0.872819 -0.150467 -0.377746 
0.322004 0.256414 -0.881504 
0.890616 -0.357014 0.105469 
0.738037 -0.125569 0.613943 
-0.586673 0.543460 0.578216 
-0.605085 0.163728 -0.758712 
-0.806297 -0.107515 -0.569535 
-0.093301 0.775624 -0.578116 
-0.084759 0.866430 -0.435365 
0.443612 -0.202836 0.846835 
-0.259667 0.823753 0.458955 
-0.592482 -0.135739 0.782175 
-0.638647 0.023291 0.759553 
-0.939940 0.317795 0.029937 
0.905388 0.305123 -0.112208 
-0.904411 -0.249352 0.332192 
0.563289 0.175610 -0.765638 
0.264806 -0.426806 0.840335 
0.114755 0.265385 0.932014 
-0.026170 -0.446706 -0.871610 
0.095964 -0.003647 -0.970560 
-0.483042 -0.250148 0.828499 
-0.400287 -0.770852 -0.481121 
-0.895071 -0.436652 0.032210 
0.785016 0.370943 -0.419966 
0.859114 -0.056671 0.437226 
-0.896483 -0.419111 0.127120 
0.316058 -0.317236 -0.863173 
0.869868 0.285817 0.299020 
0.549431 0.710719 0.357410 
0.956892 0.080548 -0.000865 
0.858475 -0.444998 0.049206 
0.205284 -0.097385 -0.948548 
-0.808327 -0.532873 -0.224982 
0.747388 -0.513893 0.344703 
0.219485 -0.682276 -0.669562 
-0.559366 0.154092 0.802373 
-0.301518 0.853562 0.369755 
0.759864 -0.248587 -0.546342 
-0.661918 -0.744174 0.017222 
-0.783216 0.304783 0.527891 
-0.573494 -0.329895 -0.736782 
-0.515754 0.834809 -0.009626 
0.267862 0.864321 0.329819 
0.662864 0.310510 -0.625840 
0.726455 -0.006158 0.640421 
-0.155630 -0.883729 0.418181 
0.831858 0.288265 -0.387637 
0.302336 0.899464 -0.183022 
0.321749 0.874716 0.258554 
0.195224 0.094808 0.953726 
-0.499164 -0.795826 -0.324103 
0.868223 -0.233273 0.358995 
0.454601 0.007750 -0.856958 
-0.113392 0.269744 0.936405 
-0.743828 0.640093 -0.080952 
-0.626589 0.689954 0.323488 
0.960940 -0.002858 0.088101 
-0.101551 -0.832517 -0.522592 
0.757677 0.067142 0.597157 
0.952893 -0.116490 -0.000573 
-0.657062 0.636013 -0.365951 
-0.001562 -0.955462 0.245344 
0.382510 -0.222053 -0.868161 
0.373769 0.877068 0.174232 
-0.571313 -0.690481 -0.434149 
0.401692 -0.863284 -0.233340 
-0.249001 0.231662 0.921159 
-0.017463 -0.455114 0.871939 
0.594615 -0.509488 0.581045 
-0.297142 -0.344639 0.877586 
-0.611660 0.653744 0.408050 
-0.001551 0.468518 -0.853242 
0.791150 -0.404482 -0.383700 
0.419415 0.864384 0.074435 
-0.263558 -0.951827 -0.097724 
0.507744 0.798514 -0.185538 
-0.156719 -0.864050 -0.451413 
-0.104359 -0.728820 -0.654487 
0.222976 0.651951 -0.684490 
-0.744886 0.143086 -0.636815 
0.539139 -0.767472 -0.268112 
0.008975 -0.366187 -0.911118 
-0.597674 0.704927 -0.339313 
-0.887439 -0.076277 0.444412 
-0.215117 0.738373 -0.605724 
-0.594762 -0.149441 -0.775800 
0.070862 0.109215 -0.969855 
-0.777354 -0.041809 0.620935 
0.932964 -0.085101 -0.213095 
0.874552 -0.413058 -0.036259 
-0.334661 -0.742905 -0.564985 
-0.772748 -0.624449 0.009798 
-0.314935 -0.467404 -0.811528 
0.903959 -0.073346 -0.325698 
0.316412 0.787731 -0.462876 
0.306480 -0.824918 -0.430134 
0.702925 0.653226 0.063145 
-0.595986 -0.600228 0.523495 
0.234322 0.765799 0.550640 
0.150455 0.183006 -0.943967 
-0.670422 -0.239025 -0.693524 
-0.275185 -0.263393 -0.908722 
0.856607 -0.319735 0.320617 
0.106404 -0.579643 -0.783700 
-0.761318 -0.038000 -0.634681 
-0.545360 -0.545065 -0.618386 
-0.043952 -0.106267 0.973913 
-0.362594 0.754588 -0.503931 
-0.963921 -0.226103 -0.119196 
-0.149456 -0.220445 -0.944731 
0.886941 0.205768 -0.310956 
0.024841 -0.005417 0.980571 
-0.817320 -0.560718 -0.132943 
0.102216 0.962428 -0.069974 
-0.018566 -0.040233 -0.979272 
0.111752 -0.879744 0.426778 
-0.781940 0.537931 -0.271324 
0.833344 -0.483499 -0.080190 
-0.348561 -0.659086 0.651459 
-0.103205 0.674328 0.698081 
-0.855728 -0.114477 -0.489431 
0.000993 -0.548775 0.821458 
0.770638 0.474011 -0.319941 
0.683737 -0.678752 -0.141810 
-0.269027 0.912334 0.223919 
-0.063017 0.909525 0.340747 
-0.454265 -0.798248 0.379300 
-0.569488 -0.671317 0.457461 
0.735919 0.307212 -0.541140 
-0.673218 0.442295 0.572771 
-0.335005 -0.545685 0.755034 
0.264178 0.830642 0.421805 
0.077417 0.890085 0.385337 
-0.084835 -0.520995 0.832011 
0.634526 -0.704248 -0.225941 
0.804264 -0.316578 -0.429876 
-0.824360 -0.402176 0.404328 
-0.864665 -0.493113 -0.054070 
0.505661 0.107484 -0.818439 
-0.917656 0.368208 -0.044886 
-0.586071 -0.803468 0.040385 
0.420393 -0.767078 0.442388 
0.863732 -0.373701 -0.223042 
0.101264 -0.609076 0.765544 
-0.000712 -0.758274 -0.624769 
-0.360880 -0.239526 -0.885489 
0.340967 -0.781651 0.484102 
-0.271333 -0.928864 -0.199676 
-0.515831 -0.151332 0.832211 
-0.376589 0.231848 -0.877319 
-0.930374 -0.106352 0.340610 
0.429205 0.520630 0.692827 
-0.942639 0.015922 0.315288 
-0.207760 0.783506 0.546873 
0.189562 -0.724469 0.643346 
-0.676489 -0.698464 0.221762 
0.123924 -0.970234 -0.116926 
0.635785 0.624946 0.365217 
0.390817 -0.885102 -0.146750 
0.430724 0.023949 0.871061 
0.426857 -0.708377 0.522397 
0.777061 -0.158965 -0.551119 
0.410882 -0.792288 -0.401157 
0.332980 0.902407 0.095954 
-0.817386 0.159299 -0.536935 
0.063978 0.959140 0.121124 
0.613843 -0.099114 -0.745243 
0.170333 -0.967214 -0.034611 
0.006014 0.865469 -0.442569 
-0.117421 -0.630730 0.751209 
0.527352 -0.604292 0.554397 
0.750664 0.557691 -0.231177 
0.858428 0.434001 -0.002094 
-0.527342 0.772143 -0.299071 
-0.583575 -0.726810 -0.348615 
-0.618329 0.484500 -0.594592 
0.668714 -0.233399 0.662121 
-0.707147 -0.700619 0.082450 
-0.648289 0.737968 0.042666 
0.200453 -0.377211 0.881923 
-0.193665 -0.657559 0.711407 
0.887081 -0.111140 0.362994 
0.256758 -0.483380 -0.809774 
0.599956 -0.576686 0.503185 
0.536496 -0.816352 -0.084420 
-0.561654 0.791977 -0.135785 
0.767704 -0.535882 0.258624 
0.108513 -0.106886 -0.965144 
0.558952 0.194719 0.769431 
-0.785410 0.058792 0.600013 
-0.231206 -0.916088 -0.285574 
0.643276 -0.663482 0.298921 
-0.953908 -0.195774 0.208146 
-0.109474 -0.794352 0.579182 
0.021721 -0.167492 -0.962638 
-0.904543 0.332856 -0.237640 
-0.444076 0.831713 0.276635 
0.340419 -0.454650 0.799349 
0.225706 0.342220 0.883742 
0.263351 -0.937849 0.122041 
-0.153287 0.284449 -0.922952 
0.000215 -0.280354 -0.938832 
0.647923 0.667461 -0.247465 
-0.940938 0.210413 -0.235688 
-0.348467 0.895357 0.175223 
0.156776 -0.297627 0.920884 
0.149691 -0.754478 -0.607152 
-0.676159 -0.553010 -0.476033 
0.527757 -0.724570 -0.385883 
-0.217031 -0.499586 -0.819374 
0.710786 0.357385 0.547560 
-0.565572 0.755154 0.264326 
-0.423479 0.828664 -0.297213 
-0.203154 0.452626 0.847600 
0.353517 0.830190 0.350802 
0.610164 -0.757194 0.077486 
-0.042242 0.553566 -0.800742 
-0.099328 0.214163 -0.950848 
-0.574628 0.407860 -0.686758 
-0.894266 0.022823 0.433699 
-0.994659 -0.036114 -0.013102 
0.652032 0.110642 0.708515 
-0.732617 -0.657930 0.158396 
0.529715 -0.136598 0.802107 
-0.453593 0.678394 0.546456 
0.426778 -0.587502 0.656868 
0.175059 0.711097 0.637146 
0.660207 0.305012 0.638632 
-0.652664 0.730940 -0.120481 
0.854333 0.063986 -0.435869 
-0.877379 0.422556 0.161925 
0.540514 0.793252 -0.081983 
0.638618 -0.550802 -0.482048 
0.069234 0.849282 0.465580 
-0.972693 0.178314 -0.091838 
0.892404 -0.350168 -0.121431 
0.539201 0.798047 0.053416 
-0.607048 -0.419423 0.666983 
0.382423 0.862907 -0.205648 
0.584958 0.743135 -0.182597 
-0.068440 -0.982150 -0.083524 
-0.779129 0.588730 -0.157575 
-0.346282 -0.926522 0.086487 
0.848882 0.163908 0.428009 
0.534898 -0.420515 0.699024 
0.627875 -0.315100 0.673778 
0.654830 0.213819 -0.677794 
-0.550024 -0.823795 -0.097947 
-0.733418 -0.664973 -0.118207 
0.521763 -0.815127 0.133074 
-0.448396 -0.701948 -0.536833 
-0.009148 -0.816410 -0.552323 
0.518765 0.298509 0.756937 
-0.446117 0.181283 0.861080 
-0.444910 0.856905 0.168679 
0.172313 -0.781326 0.568720 
-0.859091 0.089274 -0.494095 
0.633428 0.091403 -0.727105 
-0.102570 -0.552282 -0.810765 
-0.432522 -0.808723 -0.386703 
-0.827657 0.513035 0.164206 
-0.155918 0.349525 0.900677 
-0.616195 -0.545257 -0.550195 
0.261661 0.330558 -0.872427 
-0.314980 0.891428 -0.262542 
-0.671315 -0.729048 -0.079082 
-0.226098 0.902286 -0.289158 
-0.876863 -0.349058 -0.316968 
-0.328116 0.547892 0.748312 
-0.148251 -0.103605 0.968810 
-0.485466 0.848406 -0.108757 
-0.128251 0.960468 -0.084006 
0.327549 -0.356878 0.848265 
0.740600 -0.616278 -0.108728 
0.871981 -0.358455 0.223599 
-0.070123 0.037937 -0.976935 
0.517512 -0.316138 -0.758674 
0.660147 0.684381 -0.154437 
-0.090509 0.447757 -0.864101 
-0.210341 -0.386806 0.881320 
-0.442181 0.752085 -0.450425 
0.854454 -0.429430 0.148957 
0.209007 -0.232930 -0.924418 
0.224288 -0.357541 -0.877143 
-0.197794 0.725022 0.625585 
0.538810 0.760511 0.255485 
0.135772 0.773646 -0.571074 
-0.452080 -0.110969 -0.870112 
0.022823 -0.985727 -0.046631 
-0.818666 -0.331831 0.463161 
-0.449237 0.842146 -0.210266 
-0.564559 -0.776654 -0.259673 
-0.677854 -0.658477 -0.309850 
0.682100 -0.172810 -0.662956 
-0.861822 -0.470384 -0.174162 
-0.537659 0.133124 -0.811473 
-0.890670 0.006916 -0.444121 
0.463692 0.377659 0.765800 
-0.042005 0.139675 -0.964456 
-0.683676 0.180143 -0.691712 
-0.907250 -0.348305 0.220590 
-0.979905 0.005264 0.186824 
0.138328 -0.935075 -0.254290 
-0.108341 -0.047136 -0.970247 
0.518932 -0.829101 0.037899 
0.074265 -0.342041 0.917371 
0.331171 -0.517818 -0.763555 
-0.143847 0.711835 -0.653885 
-0.889564 0.358685 0.253543 
0.362203 -0.902550 0.131683 
0.514306 0.517484 -0.633663 
0.343378 -0.633287 0.662107 
0.065948 0.797360 0.551955 
-0.162837 -0.604941 -0.758521 
-0.974617 0.107746 0.183593 
-0.237603 0.935104 0.140206 
0.821763 -0.087866 -0.500223 
0.606321 0.521232 -0.537809 
-0.986418 -0.137872 -0.065715 
-0.988817 -0.073389 -0.129137 
-0.154456 -0.784430 -0.577117 
-0.968299 -0.016786 -0.228442 
-0.994157 0.007906 0.074721 
0.765531 -0.051969 -0.585005 
0.378446 -0.625487 -0.648834 
0.195170 0.812507 -0.487907 
-0.189752 0.641376 0.713993 
0.564437 -0.776758 -0.169548 
-0.543873 -0.077979 -0.819662 
-0.198887 -0.776147 0.580635 
0.758237 0.193975 -0.562931 
0.457674 0.841379 -0.098521 
-0.924987 -0.374040 -0.032972 
0.422477 0.554153 -0.670258 
-0.305148 0.024282 -0.935739 
-0.639770 -0.626806 -0.438752 
-0.043506 0.626771 0.746978 
0.587729 0.373015 -0.665213 
-0.579421 0.609945 0.511505 
0.739823 -0.492144 -0.390644 
-0.812941 0.253302 -0.507136 
-0.836214 -0.080152 0.532985 
-0.515074 0.608809 0.577681 
0.257919 -0.508521 0.795447 
-0.248656 -0.173897 -0.934499 
-0.535402 0.716522 -0.403410 
0.795090 0.538788 -0.027641 
0.031487 0.388192 -0.895275 
0.497067 0.421417 -0.713808 
-0.059050 -0.745114 0.641652 
0.230954 -0.184427 0.933010 
-0.764485 -0.360409 -0.524116 
0.781897 -0.045457 0.567941 
-0.890875 -0.379083 -0.232915 
0.244549 -0.947327 -0.081693 
0.564455 0.613382 0.489326 
-0.060051 -0.987230 0.007531 
-0.573096 0.251358 -0.760790 
-0.684889 0.561440 -0.435653 
0.302482 -0.601218 -0.708784 
0.437732 -0.299489 -0.818139 
0.692471 0.531572 0.415312 
-0.420305 -0.023188 -0.889821 
-0.028562 -0.907762 0.393292 
0.471778 0.741869 -0.395786 
-0.172969 -0.972723 -0.059298 
0.681594 -0.547915 0.427704 
-0.163934 -0.970636 0.033883 
-0.442688 -0.870895 -0.176227 
-0.617335 0.420837 0.646120 
0.911337 0.008418 0.319150 
-0.420408 0.747982 0.475321 
-0.179680 0.878126 -0.390609 
-0.718309 0.042379 0.684385 
-0.145516 -0.449184 0.867499 
0.712429 0.149921 0.635421 
-0.374213 -0.803218 0.445019 
0.792511 -0.528625 0.171942 
0.415741 0.139576 0.864587 
0.328604 0.730848 -0.546068 
0.479721 -0.600732 -0.599329 
-0.164808 0.838045 0.470630 
-0.339265 -0.605287 -0.703378 
0.508898 -0.712327 0.428359 
0.443160 -0.480474 0.723146 
-0.438514 0.607758 0.634355 
0.105006 -0.931569 0.301746 
0.618113 0.518296 0.528987 
0.304292 0.372070 0.847063 
0.742176 -0.382770 -0.490689 
-0.836755 -0.218171 -0.487703 
0.771423 0.160032 0.555488 
-0.098578 0.908357 -0.336996 
-0.825394 0.443118 0.328065 
-0.901698 -0.087398 -0.409228 
-0.617357 -0.693230 0.357548 
0.486329 -0.048801 0.843505 
0.308729 -0.691558 -0.619536 
-0.965630 -0.079800 0.224311 
0.368653 -0.688708 0.593413 
0.235720 -0.560404 -0.763710 
0.393739 -0.868066 0.223519 
0.872121 0.391753 -0.093312 
0.768984 -0.191288 0.551234 
0.621738 -0.741870 -0.109323 
-0.215211 0.570349 0.765463 
0.943713 -0.136381 0.130507 
0.410067 0.825035 -0.299154 
-0.878826 0.196087 0.417227 
0.883949 0.323658 -0.201124 
-0.656529 0.517492 0.523716 
0.769149 0.327218 0.482162 
0.121264 -0.441717 0.868157 
-0.093535 0.766747 0.593778 
-0.251075 -0.867429 0.409358 
0.626027 0.390029 0.622585 
0.936745 -0.238645 0.065225 
-0.843284 0.440752 -0.274624 
0.520675 0.794745 0.165541 
-0.041573 -0.878323 -0.444784 
0.085095 -0.774770 0.601884 
-0.526005 0.332112 -0.764433 
-0.688955 -0.632563 0.351634 
-0.105113 0.487391 0.840920 
0.658177 -0.447128 -0.556327 
0.548350 0.454979 0.654502 
-0.383989 -0.910185 -0.079558 
-0.437393 -0.875099 0.179984 
0.712429 0.156003 -0.632947 
0.167911 -0.965934 0.063446 
0.652171 0.221325 0.679546 
0.394681 -0.118294 0.884086 
-0.619757 0.745678 0.177496 
0.408741 -0.526045 -0.710369 
0.060043 0.638884 0.738695 
-0.139515 -0.425618 -0.874712 
0.826497 -0.455655 -0.216751 
-0.441111 0.168193 -0.861570 
-0.346446 0.235034 0.889196 
0.447958 0.824428 0.217894 
-0.384636 0.883347 -0.156617 
-0.800141 0.526291 0.250759 
0.597982 -0.525208 -0.559462 
0.188154 0.565437 -0.767338 
-0.184442 -0.096996 -0.956211 
-0.237035 -0.414683 -0.862991 
-0.446001 0.378679 -0.788548 
-0.454818 0.082764 0.873127 
0.256112 -0.284799 0.902300 
0.339529 0.565448 -0.707564 
0.679245 -0.664160 0.205145 
-0.908008 0.395006 0.067084 
0.705799 -0.082613 -0.652746 
0.047757 -0.868531 -0.458579 
0.179876 -0.955243 0.166664 
0.267060 0.512604 -0.778253 
0.380462 -0.082179 -0.892697 
0.083580 0.607153 -0.755110 
-0.792370 0.209941 0.553084 
-0.415938 0.807329 0.375575 
-0.432313 -0.516055 0.728894 
0.120062 -0.253773 -0.937895 
-0.759526 -0.608237 -0.216885 
-0.442229 0.074010 -0.878131 
-0.692303 -0.548337 0.458114 
0.428965 -0.878430 -0.003661 
0.660799 -0.433894 0.566354 
0.833745 0.476347 -0.081877 
-0.739185 -0.293200 -0.595644 
-0.282782 -0.254926 0.912765 
0.482669 -0.825519 -0.214893 
-0.234871 -0.659326 -0.696020 
0.512771 -0.345027 0.756760 
-0.204528 0.934390 -0.200969 
-0.772607 0.590201 0.181946 
-0.677742 0.349458 -0.628384 
-0.879762 -0.342149 0.311548 
-0.869187 0.219715 -0.424862 
-0.236807 0.661102 -0.679260 
0.059477 -0.981916 0.038440 
-0.650403 -0.516849 0.547983 
-0.265619 0.785927 -0.519273 
0.221643 -0.867480 0.404563 
-0.422624 -0.512545 -0.730266 
-0.370050 0.687658 0.598021 
0.063917 -0.917879 -0.344185 
0.376350 -0.544096 0.721855 
0.038215 0.687253 -0.687977 
-0.447694 -0.205088 -0.855951 
0.218608 0.618539 0.719561 
-0.535166 0.384652 0.733771 
0.427084 -0.688382 -0.545146 
-0.988034 0.038128 -0.135324 
-0.025760 0.964820 0.105785 
0.030648 -0.974878 -0.141463 
-0.649101 -0.066972 0.747910 
0.593955 -0.731206 0.241253 
0.793659 -0.535725 -0.151196 
-0.530324 -0.502639 0.671288 
-0.878736 0.453952 -0.018185 
-0.100231 -0.024654 0.977868 
0.638007 0.698749 0.173052 
0.925090 0.002430 -0.252470 
0.080006 -0.704206 0.682599 
-0.756538 -0.320465 0.566209 
-0.456748 -0.033245 0.877950 
0.499276 0.250470 -0.790853 
-0.083243 0.072961 0.975815 
-0.462054 -0.408621 -0.775136 
0.121869 -0.699481 -0.680387 
-0.287786 -0.945377 0.013267 
0.288715 -0.091916 0.927976 
0.932155 -0.044159 0.239143 
0.573534 -0.235480 -0.747839 
-0.712741 0.675947 0.092977 
0.501968 0.531517 0.631361 
-0.336284 0.750541 0.533417 
-0.680298 -0.441743 -0.574321 
0.252322 0.861668 -0.359196 
0.191511 0.390084 -0.868205 
0.714070 0.564952 -0.317930 
0.870746 -0.233445 -0.342549 
-0.954023 -0.283206 -0.037959 
-0.181525 0.955961 0.008255 
0.813259 0.248754 0.455265 
-0.134992 0.958535 0.132653 
0.809658 -0.529585 0.071258 
-0.530284 -0.651587 -0.531571 
-0.637492 0.331317 0.680418 
-0.864411 0.102641 0.481714 
-0.873968 -0.165300 0.444712 
0.000277 -0.623939 0.760912 
0.889052 0.001628 -0.375364 
0.261937 -0.917107 -0.224010 
-0.261260 -0.823361 0.490097 
-0.500961 0.777371 0.335179 
-0.354809 -0.890161 0.246799 
-0.515255 -0.843680 0.119386 
0.606444 -0.651097 0.394461 
-0.987210 0.110053 0.059844 
0.514044 -0.253771 0.783751 
-0.561922 -0.017390 0.814312 
0.552712 -0.466805 -0.651140 
0.344242 0.208676 0.888005 
0.370635 -0.264368 0.864315 
-0.317742 0.434393 -0.823163 
-0.785293 -0.511922 -0.330562 
-0.335892 -0.456854 0.809754 
-0.472961 -0.836301 0.264742 
-0.514660 0.234211 0.810817 
-0.749178 0.640444 0.011032 
0.739384 0.456208 -0.406662 
-0.175819 0.928584 0.248900 
0.707548 0.648254 -0.057836 
-0.343989 -0.364228 -0.850059 
-0.188079 0.013752 -0.960197 
-0.029762 0.624498 -0.744672 
-0.939617 0.295559 0.130130 
0.449531 0.787056 0.334092 
-0.142037 0.634673 -0.725514 
-0.454694 -0.881967 -0.021919 
0.175228 0.819479 0.491501 
0.449904 -0.734467 -0.460134 
-0.232757 -0.719337 0.641441 
-0.799221 -0.581032 0.114829 
0.352634 0.442020 0.791410 
-0.506441 -0.496976 -0.688846 
0.805336 -0.410039 0.352117 
0.823771 -0.289852 0.418632 
0.562941 -0.047968 0.792984 
0.892766 0.174531 0.313315 
-0.673241 -0.431185 0.591911 
-0.668400 -0.162403 0.717501 
-0.757576 0.523995 -0.364278 
-0.049888 -0.972057 -0.181553 
0.680661 0.539603 -0.411041 
0.860979 -0.321707 -0.309165 
-0.505295 0.463632 -0.701896 
-0.282317 0.341376 -0.869794 
0.042070 -0.956588 -0.231406 
-0.721154 0.294101 0.610570 
-0.944321 0.026300 -0.306104 
0.511636 -0.650723 -0.513130 
0.293249 -0.192441 -0.909565 
0.873253 0.338403 0.213954 
-0.740716 -0.173882 -0.632106 
-0.278073 -0.903265 0.298504 
0.812490 0.028182 -0.516805 
-0.004574 0.547494 0.809657 
-0.702902 -0.582527 -0.392658 
0.210006 0.542817 0.779590 
-0.729185 0.606562 0.270716 
-0.416824 0.462170 -0.760247 
0.214491 -0.912073 0.297597 
-0.796077 0.428153 -0.390581 
0.811476 0.354083 0.377153 
-0.055411 0.694450 -0.683535 
-0.098903 0.950530 -0.186378 
0.297641 0.876068 -0.280638 
0.404959 0.190688 -0.860279 
-0.425819 0.612934 -0.635113 
0.743019 0.039010 -0.614109 
0.765629 -0.592475 0.007685 
0.128113 0.662436 -0.698901 
-0.744356 0.234361 -0.607588 
-0.499648 -0.005818 -0.850223 
0.628495 0.025381 0.734606 
0.016139 0.214250 -0.951967 
-0.062590 -0.858646 0.493146 
0.768718 -0.283770 0.520830 
0.478319 -0.453957 -0.711089 
0.334540 0.557603 0.718238 
-0.742192 0.396620 0.522093 
-0.421813 -0.173189 0.878656 
-0.384829 -0.359457 0.840285 
-0.475654 -0.347872 0.794890 
-0.187266 -0.958879 -0.170577 
0.932416 0.232278 0.004780 
0.810560 0.517102 0.066883 
-0.407635 0.551372 0.703945 
0.422158 0.623186 -0.606403 
0.091662 0.534617 0.810826 
-0.216997 0.403926 -0.864128 
0.909661 -0.319198 -0.012500 
0.091056 -0.184956 0.957454 
-0.313376 0.139322 0.929609 
0.214538 0.906135 0.263405 
0.726741 0.613876 0.142630 
-0.202480 -0.729945 -0.633809 
-0.739043 0.371457 -0.539381 
-0.976263 -0.207988 0.010663 
-0.661090 -0.377232 -0.638697 
0.339993 0.456383 -0.783670 
0.236757 0.142495 -0.933632 
-0.591077 -0.227429 0.764022 
-0.499911 0.686328 -0.492980 
-0.755270 -0.498374 -0.418789 
0.677459 0.439523 0.528564 
-0.719193 -0.472075 -0.497828 
0.629972 0.718717 0.078992 
-0.428416 0.876337 -0.030474 
-0.985085 -0.083510 0.134790 
0.316807 -0.767569 -0.514269 
0.389503 0.360887 0.814750 
-0.086821 0.406499 0.887280 
-0.070692 0.824609 0.521790 
0.815739 0.028855 0.517281 
0.189729 0.192182 0.938519 
-0.337258 -0.014269 0.923335 
0.164016 0.864383 -0.403713 
0.684769 0.007679 -0.681841 
0.330413 0.148031 -0.901297 
-0.049780 0.940192 0.240915 
-0.075523 -0.932507 0.307803 
-0.134958 0.544420 -0.800494 
-0.236704 0.538154 -0.782581 
0.014166 -0.277355 0.944110 
0.606282 -0.627072 -0.431942 
-0.569217 0.585578 -0.549680 
-0.867018 0.349942 -0.322656 
0.222500 -0.779187 -0.555241 
0.216529 0.008222 -0.949491 
0.788767 0.286746 -0.469687 
-0.828924 0.505305 -0.168332 
-0.009115 0.924200 -0.304072 
-0.072421 -0.253186 0.947709 
-0.254922 0.049942 0.948087 
0.473600 0.223408 0.818365 
-0.544096 -0.745494 0.368059 
0.906868 -0.161762 -0.290627 
-0.323225 -0.154336 0.920242 
0.712591 -0.606658 0.275864 
0.612591 -0.381821 -0.647647 
0.764941 -0.364233 0.473223 
-0.790752 0.399344 0.434430 
-0.901562 0.098461 -0.410309 
-0.883264 0.426185 -0.125685 
-0.376123 0.467455 0.778153 
-0.459119 0.470517 0.735483 
-0.209733 -0.888074 -0.375673 
-0.901612 0.249011 0.340086 
0.797854 0.511985 0.165894 
-0.516314 -0.651622 0.544663 
-0.733740 -0.427072 0.518575 
0.425827 0.718680 -0.483207 
0.907008 0.290625 0.118359 
-0.917768 -0.152364 -0.348995 
0.807952 0.486230 -0.177700 
0.280182 -0.879475 -0.334067 
0.914714 -0.259948 0.160979 
-0.715382 -0.055159 0.685816 
-0.458451 0.380634 0.785389 
-0.436568 -0.851834 -0.263799 
-0.590633 0.645686 -0.447284 
-0.644869 0.541787 -0.513819 
-0.743501 0.168426 0.633160 
0.521235 0.055607 0.817327 
0.832520 0.391311 0.289188 
0.531888 0.679041 -0.430424 
0.278343 0.908293 0.178434 
0.168708 0.715721 -0.632404 
0.273799 0.049725 0.934648 
0.334410 -0.917484 -0.083121 
-0.018252 -0.977643 0.133385 
-0.073402 -0.176143 -0.964094 
-0.938882 0.121746 -0.300189 
-0.606810 -0.744057 0.282713 
0.404057 0.296079 -0.829603 
-0.279798 -0.076994 -0.937869 
-0.360343 -0.128827 -0.907362 
0.250927 -0.803062 0.502858 
-0.700885 -0.021607 -0.701330 
0.694428 -0.672735 0.106919 
-0.684741 0.216714 0.683128 
-0.058796 0.972695 0.015576 
-0.296563 0.914357 -0.174723 
0.450319 -0.379334 -0.774476 
-0.805063 0.570334 0.081255 
-0.366958 0.118533 -0.905989 
-0.574975 0.794483 0.049504 
0.269574 0.671690 0.642350 
-0.430558 0.542342 -0.694537 
0.628419 0.728734 -0.055740 
0.174464 0.942809 -0.147914 
-0.596517 -0.779773 -0.168004 
0.739519 0.602086 -0.130453 
-0.822169 -0.434186 -0.365735 
-0.459508 0.263314 -0.830376 
-0.145213 -0.970965 0.138142 
0.080922 -0.831305 0.522549 
0.260074 0.258825 0.902568 
0.521675 -0.791735 0.232034 
-0.783205 -0.572325 0.227312 
0.800085 0.473196 0.255300 
-0.739881 0.475198 0.459360 
0.353414 -0.021958 0.909615 
0.163845 -0.503861 -0.827135 
0.305314 -0.409932 -0.829872 
-0.290255 -0.934402 0.162235 
-0.249366 0.361023 0.881752 
-0.187847 -0.915662 0.318812 
0.829734 -0.203579 -0.452935 
-0.280823 0.204656 -0.919029 
-0.823404 -0.330659 -0.449927 
-0.303330 -0.759371 0.557873 
0.861547 0.169355 -0.397796 
-0.151535 0.829561 -0.492625 
-0.909180 0.203253 -0.341105 
-0.069715 -0.641532 -0.741641 
0.634895 -0.271785 -0.676969 
0.680099 0.486131 -0.484674 
-0.386952 -0.088610 0.904142 
0.751455 -0.598149 0.124388 
-0.338299 -0.886816 -0.283792 
-0.639729 0.271566 -0.700859 
-0.942256 0.170109 0.261501 
-0.258104 -0.791187 -0.534683 
0.006696 0.466489 0.857629 
0.522238 0.744184 -0.315539 
0.460990 -0.105985 -0.847320 
0.347135 0.817624 -0.379545 
0.571079 -0.713465 0.338080 
0.090827 0.842676 -0.476387 
0.820608 -0.412443 -0.295829 
0.041336 0.922507 0.303934 
0.082555 0.121013 0.966461 
0.819117 -0.104775 0.504037 
0.627656 -0.081646 0.736063 
0.429200 -0.405095 0.777938 
0.071499 -0.503470 -0.837721 
0.017833 0.218207 0.956927 
0.215942 -0.834160 -0.473971 
0.955546 -0.062426 -0.088568 
0.687623 -0.316975 -0.600885 
-0.170944 -0.837866 0.495554 
0.615025 0.677293 0.293598 
-0.486170 -0.728655 0.476477 
-0.180786 0.881536 0.378884 
0.863912 0.063581 0.423594 
0.142558 0.297787 -0.913934 
-0.399348 -0.637139 -0.640468 
0.936234 0.185995 -0.109858 
-0.483877 -0.316343 -0.801355 
-0.249655 0.942952 -0.097617 
-0.122696 0.579278 0.778263 
-0.262797 0.942499 0.050704 
0.020017 -0.687038 -0.704635 
-0.642560 -0.624563 0.431917 
0.390497 0.879930 -0.020969 
0.608698 -0.176890 0.734683 
-0.349670 0.527249 -0.748020 
0.097153 0.943364 0.204364 
-0.017191 -0.941473 -0.299872 
0.187354 -0.086398 0.957347 
0.240543 -0.600286 0.739385 
-0.502972 0.538952 0.653558 
-0.925885 0.320768 -0.149666 
0.482914 -0.218307 -0.812101 
-0.956555 -0.118587 -0.252138 
-0.589675 -0.435374 -0.668887 
-0.947603 0.281971 -0.062715 
-0.340334 0.847210 -0.350505 
-0.234849 -0.583705 0.764916 
-0.441521 0.291445 0.831038 
-0.101725 0.359946 -0.901836 
-0.857495 0.486258 0.079603 
0.779768 0.445891 0.341872 
-0.823438 -0.000232 -0.551474 
0.836326 0.414907 -0.228932 
0.173145 -0.894647 -0.373261 
0.614463 0.596150 -0.441329 
-0.077421 -0.357752 0.914410 
-0.854695 -0.500096 0.117315 
0.895929 -0.289290 -0.210246 
0.941357 0.051474 0.209476 
0.231052 0.935143 0.102252 
0.569490 0.363883 0.690648 
-0.918577 -0.254083 -0.289733 
-0.685848 0.126975 0.705011 
-0.986793 0.089788 -0.061450 
0.123297 -0.835543 -0.505208 
-0.800477 -0.231695 0.545643 
0.958477 0.025242 -0.115303 
-0.771352 0.053353 -0.620062 
0.215873 0.944449 -0.023222 
-0.786883 -0.141520 0.591187 
-0.769444 0.520856 0.341445 
-0.325151 0.712472 -0.585576 
0.637772 -0.660431 -0.322556 
0.720485 0.400394 -0.498115 
0.576766 0.037294 -0.773433 
-0.273333 0.674443 0.658569 
0.925745 -0.140494 0.236728 
0.677004 0.643512 0.233027 
-0.534506 0.806618 0.171472 
-0.394536 -0.852893 0.320711 
0.936830 0.188702 0.089527 
-0.926452 0.267514 0.233946 
-0.504800 0.722934 0.433957 
0.346798 0.788066 0.441378 
-0.127375 0.109654 -0.965123 
0.542979 -0.046078 -0.800766 
0.696683 -0.301510 0.606418 
-0.665968 -0.143765 -0.719362 
0.692231 -0.476939 0.489532 
-0.745837 -0.218095 0.618032 
0.134330 0.358012 0.897869 
-0.332698 -0.852303 -0.378710 
-0.572281 -0.321943 0.745313 
-0.528241 -0.403117 0.737816 
0.831961 -0.196773 0.452417 
0.629305 0.635371 -0.361744 
0.851633 0.415925 0.156675 
-0.213468 0.139582 0.951054 
-0.848426 0.020476 0.517872 
-0.829698 0.541458 -0.011416 
-0.361563 0.906498 0.051848 
-0.347491 0.796616 0.452879 
0.001743 0.363929 0.907181 
-0.920223 0.143100 0.346601 
-0.965608 -0.225839 0.106357 
-0.813222 -0.505905 0.284040 
0.928751 -0.173700 -0.187436 
0.254931 -0.949210 0.021901 
0.384818 0.053969 -0.890646 
0.358269 0.374772 -0.820721 
0.699911 -0.636776 -0.221794 
0.120294 -0.345061 -0.908446 
-0.677807 0.564442 0.442491 
0.667845 0.393110 -0.572435 
-0.420081 -0.722443 0.537068 
-0.053030 -0.682836 0.710792 
0.044418 0.803514 -0.545633 
-0.626011 0.726786 -0.230160 
0.682368 -0.566975 -0.391189 
-0.987884 -0.111488 0.045609 
-0.005354 0.687085 0.691895 
-0.478605 -0.746292 -0.444125 
-0.933495 -0.325415 0.130627 
-0.332367 0.601532 -0.696404 
-0.606335 0.253921 0.738662 
0.068085 0.901261 -0.360947 
0.370823 0.665343 0.591934 
0.069026 0.536752 -0.810054 
-0.069092 0.172652 0.963750 
0.341112 0.734250 0.527912 
-0.656068 -0.719608 -0.208945 
0.341330 -0.824804 0.405171 
0.015632 -0.572252 -0.797473 
0.429867 0.750888 0.432003 
0.188720 0.478913 -0.821325 
-0.164131 -0.318014 0.921103 
0.438184 0.371399 -0.778350 
-0.374102 0.355639 0.840519 
0.670739 -0.706815 -0.010088 
0.902424 0.238571 -0.224740 
-0.152789 -0.203832 0.951195 
-0.786618 -0.414516 -0.446243 
0.500101 -0.768937 0.341435 
-0.673436 0.682377 0.225221 
-0.834988 0.338301 -0.405969 
0.545875 -0.150288 -0.788048 
0.250765 0.458553 0.818405 
0.497941 0.623876 -0.542306 
-0.089909 -0.913777 -0.361882 
-0.028922 0.864644 0.442707 
0.278293 -0.738232 0.579642 
0.167864 -0.633308 -0.726960 
-0.682374 -0.263257 0.673616 
0.344953 -0.918391 0.011904 
-0.850901 0.286202 0.421483 
-0.915147 -0.372196 -0.142113 
0.060616 0.734091 0.637100 
0.925026 -0.259517 -0.128886 
-0.118738 -0.938040 -0.268775 
0.892446 0.097766 -0.347795 
0.305260 0.917563 -0.028821 
0.858737 0.308069 -0.303948 
0.748776 0.425452 0.425167 
-0.245704 -0.458670 0.839082 
0.102586 0.458173 -0.852083 
-0.102728 -0.953385 0.223492 
-0.264483 0.841488 -0.418657 
0.502147 0.689221 0.458281 
-0.002105 0.309275 -0.925004 
0.286388 -0.910861 0.224588 
0.926466 0.161909 0.195654 
0.000903 -0.799546 0.579294 
-0.852911 0.353836 0.355820 
0.236819 0.740322 -0.578087 
-0.222353 0.140340 -0.943542 
0.591248 -0.775653 -0.011846 
-0.862653 -0.438916 0.237688 
-0.174135 -0.524701 0.818518 
0.942336 0.110172 -0.166696 
-0.246009 -0.106762 0.950198 
0.880005 0.386779 0.074859 
0.736215 0.575192 0.228451 
-0.948656 -0.210590 -0.216785 
0.084160 -0.424567 -0.881036 
0.296005 0.048181 -0.924283 
0.433457 -0.311891 0.819364 
0.922005 0.110871 -0.256081 
0.944768 -0.175349 -0.081358 
-0.218392 -0.942403 0.217480 
0.746250 -0.456492 0.417680 
0.084695 0.927083 -0.260186 
-0.545526 -0.806868 0.202359 
-0.956095 0.208694 0.164021 
0.123674 -0.014049 0.970871 
-0.671986 -0.352280 0.643620 
0.774589 -0.508029 -0.275282 
-0.369485 0.324670 -0.847385 
-0.975659 0.198652 0.021926 
0.714210 -0.591143 -0.298642 
-0.426198 -0.434960 0.780728 
0.147207 -0.527280 0.815866 
0.138517 0.464695 0.845978 
0.292419 -0.081247 -0.924358 
-0.337059 0.613554 0.686485 
0.898343 -0.221297 0.273791 
0.421974 -0.813997 0.338464 
-0.315703 -0.686680 -0.636049 
0.161128 0.079624 -0.955700 
-0.277766 -0.835177 -0.457052 
-0.738377 -0.591557 -0.307476 
0.071983 0.950740 -0.164248 
-0.343983 0.908889 -0.057428 
0.361331 0.893584 -0.105492 
-0.846605 -0.447420 -0.277635 
-0.198350 -0.024825 0.960185 
0.295786 -0.872798 0.334922 
0.710811 0.561649 0.328618 
