-0.289154 0.586654 -0.729106 
-0.510934 0.702450 -0.456142 
0.428959 -0.669631 -0.566186 
-0.539227 0.173949 0.810451 
0.741337 0.599329 -0.132707 
-0.623327 -0.764178 0.128375 
-0.479779 -0.864614 0.068491 
0.293249 -0.192441 -0.909565 
-0.777184 -0.440024 -0.438786 
0.463042 0.791294 0.299799 
-0.208573 -0.647439 -0.715998 
-0.427552 -0.301999 -0.837337 
0.251819 -0.588133 0.745584 
-0.749203 0.368891 -0.524949 
0.664530 0.624919 0.309929 
-0.525606 0.393235 0.735844 
0.434988 0.451115 0.738205 
-0.272767 0.167104 -0.928631 
-0.375772 -0.917009 -0.034949 
-0.536804 0.085455 0.825906 
-0.137747 -0.878103 0.434548 
-0.853019 -0.272119 0.439410 
-0.227459 0.934475 0.155220 
-0.962073 0.066325 0.252205 
0.351906 -0.834692 -0.373270 
-0.800443 -0.213325 -0.548476 
0.163603 0.759756 -0.584695 
-0.427235 0.749599 0.465964 
-0.541838 0.727863 -0.375204 
-0.085890 -0.817609 -0.547832 
0.163887 0.659538 -0.692551 
0.953333 -0.114633 -0.042024 
-0.475470 -0.274161 0.825635 
0.865124 -0.120671 -0.406573 
0.015969 -0.835725 0.523656 
-0.007820 -0.920157 -0.353234 
0.651128 0.249241 0.672942 
0.114506 0.184702 -0.949869 
-0.594893 -0.147483 0.778382 
-0.725934 -0.485717 -0.475726 
-0.667817 0.087568 -0.727108 
0.265187 -0.944078 0.042961 
-0.589171 0.748494 -0.241047 
-0.306767 -0.929543 -0.151412 
-0.920290 -0.385698 -0.011655 
0.518359 -0.254389 -0.779401 
-0.720348 0.660911 0.137782 
0.834377 0.443037 -0.165591 
-0.929104 0.327086 -0.087624 
0.627008 -0.591203 -0.449883 
-0.240370 -0.600153 -0.745102 
-0.048648 -0.938059 0.298596 
-0.622055 -0.693500 0.350599 
-0.361120 0.055150 -0.913647 
-0.484140 0.241496 -0.820656 
-0.455779 0.770518 0.402306 
0.587647 0.383922 -0.659879 
-0.933495 -0.159000 0.304658 
0.384764 0.224142 -0.861399 
0.614648 -0.752540 -0.061272 
0.824511 -0.171232 -0.472116 
0.421870 0.839132 0.217742 
-0.814427 0.524603 0.198069 
0.739856 0.517412 0.328574 
-0.641399 -0.311894 0.693854 
0.512576 0.215508 -0.793258 
-0.599920 0.585287 0.518281 
-0.452276 -0.664145 -0.578848 
-0.844579 -0.077492 0.521266 
0.205539 0.897792 -0.298622 
0.191572 0.371806 -0.875657 
-0.544590 0.470371 0.675568 
-0.878903 -0.473915 0.021456 
-0.555153 0.585395 0.563321 
0.703613 -0.515039 0.433905 
-0.622823 -0.382551 -0.670460 
0.708658 -0.439738 -0.491889 
-0.115257 -0.649538 0.736110 
0.394190 -0.580979 -0.676986 
0.168380 -0.921159 0.304197 
0.593358 0.107142 0.758812 
-0.381135 -0.796258 0.451991 
0.375577 0.259096 0.857350 
0.608678 -0.696737 -0.301593 
-0.698078 0.322446 0.624959 
-0.576177 0.795282 0.020881 
0.452845 -0.760295 0.414807 
0.262741 0.437761 -0.828358 
0.661485 -0.688373 -0.187798 
0.811550 0.363991 -0.370038 
-0.784130 0.448899 0.400625 
-0.973943 0.206671 -0.004538 
0.659449 -0.585723 0.407457 
0.843936 0.460543 -0.072113 
-0.098976 0.751580 -0.608690 
-0.974065 0.164557 -0.103032 
0.819781 0.444363 -0.234412 
0.510352 0.469000 -0.673031 
0.365207 0.752530 -0.482572 
0.954586 0.016481 0.130180 
-0.620892 -0.479665 0.606040 
0.191280 -0.795013 -0.542600 
0.588046 0.617831 0.455203 
0.177175 -0.759115 -0.595017 
0.454343 0.597372 -0.606744 
0.010784 -0.384800 0.905089 
-0.794454 -0.069139 -0.595315 
-0.467523 -0.660040 0.574816 
0.756654 0.372790 -0.463150 
-0.570376 0.666419 -0.440476 
-0.174169 0.863820 -0.421703 
-0.276068 0.929549 -0.124056 
-0.508067 0.713190 0.446828 
-0.413094 0.765153 -0.451857 
-0.754421 -0.508444 0.408950 
-0.680007 0.519645 -0.491401 
-0.941483 0.105609 0.297424 
-0.644265 0.498542 -0.554789 
-0.814109 0.522302 -0.185247 
-0.257399 0.886084 -0.316230 
-0.951450 0.283250 0.002955 
-0.408187 -0.513568 -0.737350 
0.180540 -0.619460 0.738624 
-0.336994 -0.123319 0.919427 
0.810515 -0.051210 0.522037 
0.894205 0.263449 -0.229700 
-0.950434 -0.193989 0.226165 
-0.023052 -0.526123 -0.828189 
-0.700453 -0.634877 0.315375 
-0.849491 0.353761 -0.359710 
-0.390310 -0.084587 0.903233 
0.639280 0.066948 0.722474 
0.547796 0.535299 0.593371 
0.320905 0.287831 0.871583 
-0.359709 0.871152 -0.265155 
-0.487684 -0.270949 -0.816789 
-0.874321 0.463815 -0.001568 
0.219221 -0.494715 -0.817733 
0.265855 -0.783571 -0.524282 
0.161722 0.673835 0.680838 
-0.240439 -0.845687 0.459296 
0.603047 0.294211 -0.692904 
-0.761133 -0.224569 -0.599100 
0.458261 -0.427895 0.745582 
-0.664427 0.537681 0.491938 
0.356578 0.894986 0.066461 
0.142118 0.719640 0.639389 
0.284735 0.588941 -0.714354 
0.128622 0.456505 -0.849349 
-0.088091 -0.383146 -0.901686 
0.962199 -0.027623 0.075109 
0.245538 0.103362 -0.936330 
0.318964 0.217909 0.894582 
0.911456 0.139282 -0.283452 
0.594435 0.032108 0.763185 
-0.302538 -0.181007 0.921784 
0.641103 -0.086290 -0.723827 
0.302624 0.520732 0.760723 
0.682999 -0.417592 -0.549780 
-0.772844 0.611676 -0.048385 
0.574706 0.331715 0.699983 
-0.573696 -0.746064 -0.322640 
0.647808 -0.554252 0.466702 
0.400010 -0.470976 0.756453 
-0.866606 -0.458261 -0.183505 
-0.017302 -0.285633 0.940809 
0.009645 0.224728 0.955722 
-0.314229 0.238149 0.899997 
0.723657 0.512748 -0.368410 
0.658460 0.689070 -0.131511 
-0.204294 -0.060186 -0.955449 
-0.103966 0.955664 0.167496 
-0.597505 0.706478 -0.336074 
0.104564 0.514893 -0.819232 
-0.367890 0.896458 0.131414 
-0.523896 -0.642599 0.548912 
-0.711487 0.672973 -0.101300 
0.289800 0.663130 0.641735 
-0.104352 -0.513617 -0.833051 
-0.079315 -0.230622 0.953343 
0.528532 -0.622310 -0.528392 
-0.912292 0.012470 -0.392659 
-0.380996 0.744993 -0.504885 
0.810017 0.062131 0.526466 
0.905138 0.086482 -0.319539 
0.506316 -0.748154 0.370990 
0.081996 0.246243 0.943087 
-0.004556 0.032570 -0.976837 
0.580788 0.482962 -0.599928 
-0.421137 0.818802 -0.332567 
0.413224 0.710512 0.505700 
0.533043 -0.547303 -0.606236 
0.819661 -0.417139 -0.291682 
-0.539160 -0.790436 -0.270414 
-0.754220 -0.147529 -0.622175 
-0.364056 -0.737234 -0.555346 
0.718747 -0.636922 0.146924 
-0.066335 0.007541 0.980829 
-0.632866 0.750162 0.047313 
-0.099839 0.624759 0.747405 
-0.404578 -0.030630 -0.897302 
0.427389 -0.081001 -0.869406 
-0.268914 -0.840226 -0.454637 
-0.284786 0.314514 -0.878395 
-0.894669 -0.434683 -0.087436 
-0.247325 -0.906102 -0.307341 
0.468826 0.839635 0.092356 
-0.957780 0.228583 -0.155222 
0.482385 -0.638446 0.560935 
0.330957 -0.182346 0.899403 
0.231167 0.664124 0.667390 
0.156920 0.050700 0.966669 
-0.796977 -0.453733 0.399209 
-0.597492 0.144431 0.777842 
0.802042 -0.527785 0.132376 
-0.074974 0.788745 -0.563273 
0.680272 0.572305 -0.367198 
-0.096743 -0.571439 -0.798093 
0.076337 0.929251 0.267900 
0.884883 0.240589 -0.292141 
-0.101863 0.135124 0.966000 
0.110159 0.567940 -0.783340 
-0.616312 -0.019058 0.777775 
0.828796 0.004008 0.495345 
0.891788 -0.268077 0.248569 
0.814132 -0.233744 0.471165 
0.285575 -0.624418 -0.696506 
0.464017 -0.817797 0.256844 
-0.708854 0.114542 0.686415 
-0.939038 0.306697 0.089553 
-0.871112 -0.416407 -0.251775 
0.434174 -0.435733 -0.750982 
-0.630882 -0.675466 -0.366035 
0.487868 -0.838248 0.142794 
0.885385 0.140610 -0.351101 
-0.014175 0.748398 0.624511 
0.589941 -0.103683 -0.764139 
0.089064 0.757316 0.603656 
0.555377 0.599727 0.515627 
-0.843808 0.362859 0.366080 
0.580160 0.192396 0.753874 
-0.797886 0.581440 0.011103 
0.313612 -0.542136 0.751802 
-0.236265 -0.936661 -0.208782 
0.032954 -0.237911 0.955362 
0.045904 -0.538942 -0.818339 
0.036530 -0.897247 -0.398304 
-0.042260 0.641430 -0.731005 
-0.359557 0.280765 0.870654 
0.143938 -0.901950 -0.367318 
0.632500 -0.519483 0.524909 
0.197847 0.468725 0.829107 
0.731922 -0.378336 0.512910 
0.812754 0.456713 0.240571 
-0.895602 0.006317 0.431740 
0.224688 -0.947173 -0.138015 
-0.569844 -0.799095 0.164699 
-0.202141 0.744350 -0.600813 
-0.968197 -0.183587 -0.152678 
0.809716 0.498722 0.141798 
-0.621174 -0.090104 0.767037 
-0.241239 -0.462334 -0.838324 
0.298888 0.157391 0.915213 
-0.845710 -0.267601 -0.446638 
-0.568022 -0.238293 0.778210 
-0.579765 0.771428 0.186398 
0.030408 -0.531895 0.828292 
0.172117 0.310020 -0.904875 
0.845535 -0.095991 0.462550 
0.909322 0.300285 -0.098257 
0.650478 -0.618373 -0.378212 
-0.963684 0.235027 -0.066524 
0.468173 0.436738 -0.725743 
-0.058175 0.957242 -0.166451 
-0.515275 0.645517 0.535434 
-0.848902 0.308285 0.405434 
0.201875 -0.827671 0.494764 
-0.370477 0.812379 -0.402877 
0.588072 -0.761376 -0.155267 
-0.891898 -0.431975 0.108966 
0.554191 -0.263623 0.753112 
-0.487519 -0.700849 -0.503743 
0.556858 0.335263 -0.714057 
0.208370 0.155588 0.943357 
0.663245 -0.438830 0.560278 
-0.439767 -0.812762 -0.368833 
0.077131 0.815142 0.527662 
-0.646920 0.669806 -0.316500 
0.485858 0.803777 -0.215671 
0.267213 0.587702 0.726531 
0.798333 0.438617 0.312516 
-0.346653 0.557234 -0.727314 
-0.306602 0.106565 -0.925586 
-0.741386 0.376905 0.540119 
-0.972349 -0.160376 0.146133 
0.630653 0.308907 0.665193 
-0.084864 0.966225 -0.069928 
0.845034 -0.157644 0.443450 
-0.756440 0.589605 0.235815 
-0.871752 -0.287630 -0.385695 
-0.983143 0.087979 -0.142939 
0.255520 -0.830464 0.456052 
0.878871 -0.254040 0.311505 
-0.743194 -0.604998 0.264587 
0.818707 0.243492 0.446834 
0.846606 0.366880 0.274165 
0.599658 -0.761282 0.108815 
0.147806 0.823138 0.496989 
-0.573265 -0.811035 0.065639 
-0.618396 0.762864 -0.045195 
0.693155 0.010299 -0.672362 
-0.180069 -0.969631 -0.030199 
-0.177160 0.899301 0.334572 
-0.936848 0.291842 -0.147284 
0.137669 0.905777 0.313129 
-0.167402 0.922279 -0.264527 
-0.700832 -0.601487 -0.366591 
-0.470512 0.855736 -0.106373 
0.893021 -0.183912 0.316291 
0.063943 -0.958271 0.224229 
0.505083 0.610010 0.553019 
-0.962761 0.230270 0.081623 
-0.775308 0.461628 -0.395273 
0.811889 -0.134890 0.505533 
0.916715 0.213709 -0.195243 
0.682974 -0.693704 0.024151 
0.575786 -0.653439 0.447265 
0.472147 0.271736 -0.800497 
0.536402 0.766782 -0.228216 
-0.428056 -0.229880 -0.858862 
-0.246266 -0.461076 0.837506 
0.284258 -0.878766 0.330877 
-0.734782 -0.369182 0.560836 
-0.496848 0.619912 -0.576535 
-0.768284 -0.601304 -0.203757 
0.107279 0.409563 0.881773 
-0.899536 -0.225293 -0.364545 
0.209094 0.714811 0.621652 
0.305416 0.184420 -0.902943 
-0.559620 0.420675 -0.689921 
-0.591559 -0.051431 -0.791040 
0.852434 -0.184475 -0.410578 
-0.152005 0.486663 0.836904 
0.242145 -0.952525 -0.031040 
-0.670957 -0.637539 0.378232 
0.414606 0.867389 0.062579 
-0.668160 0.668272 0.293107 
-0.198292 -0.210638 0.941657 
-0.539656 -0.835269 -0.005126 
-0.075475 0.920660 -0.307598 
-0.847165 -0.395019 0.344292 
0.563040 0.676598 0.396762 
-0.311617 -0.935854 0.093501 
0.768406 0.513934 0.266766 
0.725432 0.345297 -0.533611 
0.849199 -0.236688 0.398930 
-0.250797 0.441006 0.838821 
-0.984541 -0.081936 0.144576 
-0.425636 0.590669 0.657613 
-0.738053 0.488123 0.448017 
0.241962 -0.293120 0.902601 
0.030515 0.950645 0.203446 
-0.575620 0.406968 0.692948 
0.219251 0.822286 0.469155 
0.769466 0.390868 0.420665 
0.776626 0.147523 0.551757 
0.678721 -0.475978 0.510935 
0.694873 0.251235 0.622074 
0.692278 0.413495 0.530324 
-0.295712 0.926056 0.104030 
-0.312729 -0.604707 -0.718049 
0.360068 0.125679 0.895235 
-0.299053 0.530088 -0.764936 
-0.685551 0.024997 -0.713437 
-0.629582 0.342070 0.681653 
0.803408 -0.307198 0.444665 
0.659317 0.702290 0.026790 
-0.093922 0.970222 -0.005921 
-0.005010 -0.044236 0.981278 
0.811216 -0.057517 -0.522277 
0.824256 -0.477199 -0.183216 
0.185435 0.881629 0.347604 
0.668979 0.161806 0.679639 
-0.473562 -0.387439 -0.778485 
0.217607 -0.857939 -0.425974 
0.203390 -0.229424 -0.926944 
0.885117 -0.136177 0.360540 
0.044757 -0.630445 -0.751643 
-0.964292 -0.054224 -0.246213 
0.041748 -0.760761 0.624924 
-0.052925 0.577504 -0.784060 
0.152202 0.897125 -0.333431 
-0.381141 -0.525489 0.748976 
0.126629 -0.203786 -0.946885 
0.162149 0.797878 -0.526445 
0.950913 -0.106681 -0.123777 
-0.132058 0.782364 0.568726 
0.951783 0.144151 0.034039 
0.682460 0.562556 0.385971 
-0.151463 -0.772715 0.600446 
-0.258149 0.825943 -0.457814 
-0.240842 -0.383774 0.875563 
-0.097154 -0.978746 0.094522 
0.084271 0.851828 0.458940 
0.683606 0.096280 0.682595 
-0.323529 0.421870 0.825965 
-0.845056 -0.513892 0.131177 
-0.535320 -0.379896 0.745238 
0.532447 -0.757898 -0.308121 
-0.051222 -0.830355 0.533807 
0.510984 0.617963 -0.536205 
0.084614 -0.727254 0.661205 
-0.445142 -0.154285 0.870468 
0.663933 -0.636609 -0.317000 
0.914120 -0.289182 0.123455 
-0.471089 0.421687 0.758866 
-0.600933 0.348196 -0.701281 
-0.239766 0.812098 0.486761 
-0.900253 -0.283248 -0.329251 
-0.010307 0.685643 -0.693433 
0.793710 -0.005101 -0.553195 
-0.236375 0.945702 0.083011 
0.897913 0.221829 0.269371 
0.617583 -0.736753 0.164592 
-0.188603 -0.047573 0.962283 
0.401172 -0.202933 0.865345 
0.134338 0.461672 0.848768 
-0.352946 -0.894384 0.234431 
0.486801 -0.614989 -0.576693 
-0.729850 0.332001 -0.581722 
-0.469885 0.177104 -0.843079 
-0.878760 -0.111903 0.451870 
0.449021 0.511857 -0.685591 
-0.052311 -0.938633 -0.298799 
-0.884846 -0.420234 0.191865 
-0.830682 -0.225506 0.504223 
0.164123 -0.291299 -0.921309 
-0.724437 0.535403 0.407149 
0.193708 -0.960237 0.107145 
-0.147828 -0.328264 0.919861 
0.498586 -0.161951 -0.816270 
0.280343 0.812127 0.445961 
0.824131 -0.286229 -0.417013 
0.191994 -0.556584 0.786075 
-0.726209 -0.657747 0.192365 
0.252322 0.239099 0.910481 
-0.294724 0.767072 -0.529586 
-0.395680 0.452933 0.778095 
0.315116 -0.029266 -0.919537 
0.864696 0.053678 0.423730 
-0.024877 0.092832 -0.972027 
-0.434047 0.661903 0.584031 
-0.814185 -0.263115 -0.503298 
-0.686525 -0.538816 0.479271 
0.206645 0.924265 -0.203626 
-0.092285 0.073029 0.974431 
-0.796098 -0.478772 -0.361337 
-0.208281 -0.876851 0.413936 
-0.320965 -0.784184 0.514113 
-0.480020 0.825436 0.233636 
0.433701 -0.864898 -0.136049 
-0.228594 -0.805385 0.528069 
0.184705 0.274199 0.918814 
0.134531 0.845014 -0.459377 
0.889277 0.292050 0.225556 
-0.918295 -0.367756 0.135628 
0.691577 -0.273997 0.622896 
-0.137837 0.216277 0.949878 
0.149191 -0.172327 0.953373 
0.718092 -0.494376 -0.423799 
-0.141045 0.577240 -0.774478 
0.585461 0.474706 0.604737 
0.562648 0.583766 -0.523085 
-0.866615 0.148351 -0.457967 
0.881024 0.326624 -0.211258 
0.366211 0.704991 -0.553713 
0.757835 -0.057184 0.604381 
0.271482 0.880340 -0.295792 
-0.771069 -0.614138 0.140159 
0.287078 0.469039 0.799244 
-0.535154 -0.825766 -0.136499 
0.764912 0.315669 -0.490014 
-0.170729 0.031039 0.964452 
0.737238 -0.603606 -0.175539 
0.268065 -0.937683 0.106304 
0.388514 -0.689353 0.577140 
-0.851646 0.226289 0.455307 
-0.810415 0.345601 -0.440911 
-0.389683 -0.384963 0.826664 
-0.903627 0.377915 -0.161061 
0.582959 -0.682321 0.377293 
-0.501165 0.821179 -0.188016 
-0.702936 0.594831 -0.349255 
0.845980 0.409605 0.201009 
0.109233 -0.761009 -0.608831 
0.698142 0.658787 0.065025 
-0.303882 -0.057678 0.933332 
-0.336832 0.904517 -0.136591 
-0.834667 -0.438028 -0.327294 
-0.043442 -0.912728 0.381059 
0.170732 0.576944 -0.761648 
0.161255 0.595949 0.754848 
-0.852026 0.304485 -0.401843 
0.742688 -0.616329 -0.090173 
-0.434841 -0.608553 -0.649127 
-0.698600 -0.708917 0.086744 
0.568405 0.775972 -0.010452 
0.291179 0.755148 -0.529238 
0.752179 0.597613 -0.063887 
-0.602367 0.771998 0.117474 
0.070047 -0.897332 0.396338 
-0.323816 0.899484 0.199640 
-0.955145 -0.283791 -0.007096 
-0.084523 0.508837 -0.827655 
-0.984225 -0.165937 0.000885 
-0.047005 0.365728 -0.902464 
0.487606 0.252876 0.797452 
-0.743129 -0.663123 -0.086142 
0.768396 -0.560500 0.176182 
0.017378 0.842261 0.485122 
0.761949 -0.445830 -0.405183 
-0.026053 0.613737 0.758424 
-0.550823 -0.261719 -0.775647 
0.947356 -0.022876 -0.165277 
-0.182161 -0.254646 -0.931109 
0.045069 -0.599471 0.778722 
-0.704230 -0.455323 -0.533925 
-0.237791 0.587548 0.747412 
0.647079 0.676305 0.221241 
-0.256983 -0.513501 -0.800104 
0.906579 -0.072926 0.317047 
0.818268 0.178879 0.479838 
-0.127375 0.109654 -0.965123 
-0.102207 0.743511 0.622360 
0.923578 -0.267192 -0.104964 
0.442531 -0.688009 0.535080 
-0.660590 -0.600337 -0.446296 
0.106716 -0.979028 -0.020619 
0.330032 0.561688 0.717233 
0.334648 -0.488306 0.779919 
-0.728197 0.248898 0.622689 
0.318329 -0.452851 -0.803102 
-0.239711 0.947171 -0.068199 
0.346365 -0.805540 -0.432826 
-0.690586 0.554630 -0.436694 
-0.075285 -0.866106 0.475076 
0.889727 0.324673 0.168920 
0.454860 -0.217121 -0.829489 
0.056464 0.726230 0.648304 
0.547703 -0.000022 -0.795924 
0.469010 0.666923 -0.518727 
0.942958 -0.186075 -0.068556 
-0.605516 0.632007 0.455007 
-0.955585 0.216623 0.157776 
-0.500274 0.789859 0.299813 
0.513503 -0.732813 -0.390136 
-0.282571 -0.408179 -0.850543 
0.578166 0.748036 -0.184120 
-0.513225 0.754981 0.372335 
-0.165105 -0.384531 0.892725 
-0.493138 -0.491715 -0.702390 
-0.212324 -0.131747 -0.947435 
-0.849344 0.453564 0.228789 
0.516383 -0.463210 0.687054 
-0.883593 -0.333447 0.310807 
0.634735 0.614001 -0.383387 
0.660833 -0.704900 0.119567 
-0.780090 -0.010435 0.619678 
0.766643 -0.216945 0.546933 
-0.198059 -0.404529 -0.876059 
-0.550671 0.799301 -0.137835 
-0.499394 -0.002432 -0.850593 
0.285592 -0.237723 0.905067 
0.268743 0.729406 0.584210 
0.031322 0.655029 0.722864 
0.071327 -0.704655 -0.680658 
0.887125 0.368456 0.012987 
0.362597 0.339339 0.837156 
0.846510 -0.442267 0.155176 
0.869953 0.406397 -0.034782 
-0.193353 0.298397 0.913198 
0.811476 0.354083 0.377153 
0.925808 -0.066675 0.255646 
0.293082 0.776728 0.497860 
0.842677 0.448355 0.112764 
-0.346083 -0.041809 -0.921072 
-0.317726 -0.582122 0.734917 
0.353090 0.816831 -0.375244 
0.318406 0.801349 -0.438745 
0.063096 -0.038348 0.978234 
-0.647463 -0.689604 -0.302005 
0.486365 0.740779 0.385341 
0.021978 -0.972401 0.173562 
-0.379157 -0.910236 -0.110174 
-0.473450 0.089837 -0.859569 
-0.099656 0.891003 -0.383401 
0.666924 -0.346408 0.615294 
-0.818655 -0.001110 0.565993 
0.391570 -0.779104 0.455405 
0.003570 -0.701010 -0.689536 
-0.619229 -0.265226 0.730468 
0.580375 -0.321079 -0.708871 
-0.816713 -0.529118 0.227652 
0.304317 0.376359 -0.840589 
-0.548142 -0.828973 -0.070848 
0.449661 0.835375 -0.171800 
-0.583239 -0.306431 -0.737782 
-0.335928 0.795557 -0.463417 
-0.156992 0.715681 -0.646329 
-0.694654 -0.247018 -0.663881 
-0.676514 -0.543042 -0.486676 
-0.789088 -0.553295 -0.240571 
-0.531673 -0.109155 0.830673 
-0.483739 0.391198 -0.764634 
-0.984284 -0.140221 0.087283 
0.483774 0.056025 0.839156 
0.585310 0.739481 0.208190 
-0.492078 -0.616138 -0.602947 
-0.590010 0.501736 -0.610524 
0.573541 -0.256679 -0.741443 
0.815471 -0.385383 -0.349330 
0.448247 0.764811 -0.384707 
-0.771252 0.532460 0.317060 
-0.620957 -0.763508 -0.155181 
0.115244 0.619616 -0.738430 
-0.472963 0.672672 -0.533560 
-0.758095 -0.284411 -0.576328 
-0.376787 -0.587531 0.702921 
0.098999 -0.573768 -0.790243 
-0.718789 -0.079461 -0.675159 
-0.182818 0.435052 0.859086 
-0.331397 0.418361 -0.824831 
0.463107 0.666012 0.524903 
0.054822 0.969335 -0.021639 
-0.879374 0.178329 0.424004 
0.262273 -0.249785 -0.904521 
-0.446097 0.806366 0.338726 
0.780580 -0.105914 0.559986 
-0.548646 -0.693062 -0.455153 
-0.104181 0.294879 0.928256 
-0.050160 -0.981909 -0.090336 
0.665697 -0.702240 -0.115306 
-0.454694 -0.881967 -0.021919 
0.128376 0.869845 0.414652 
-0.493684 -0.193235 0.836761 
-0.381471 -0.770893 -0.493285 
-0.321962 0.746939 0.545104 
-0.070077 0.715889 -0.656671 
-0.338466 0.480343 -0.785075 
-0.667920 -0.113347 0.728806 
0.140431 0.872760 -0.397163 
0.780395 0.106287 -0.549084 
-0.929270 -0.314274 0.177518 
0.026269 -0.026643 -0.976741 
0.869868 0.285817 0.299020 
-0.444752 0.696556 0.529633 
0.144064 0.922885 0.247982 
-0.903177 0.342671 -0.229079 
0.258798 0.540293 -0.762556 
0.665745 0.617163 -0.320269 
-0.325083 -0.879421 0.327558 
-0.239422 -0.097905 0.951582 
0.485074 0.158016 -0.821732 
-0.392211 -0.755641 0.516668 
-0.732810 0.660343 -0.005830 
0.916364 -0.128110 0.269122 
0.097777 0.965057 0.030423 
-0.722498 -0.685504 0.022770 
0.742042 -0.140195 0.604495 
0.953062 -0.057766 0.132458 
0.278949 0.909388 -0.171032 
0.595021 -0.704083 0.310928 
0.432520 0.647959 -0.573481 
-0.163934 -0.970636 0.033883 
0.096523 0.689404 0.683819 
-0.842682 0.442642 0.295719 
-0.399603 0.872008 0.187133 
-0.603111 0.073348 0.782509 
-0.710142 -0.428035 0.550346 
0.045986 -0.974842 -0.135734 
0.290875 -0.810685 -0.464204 
-0.262433 -0.712872 0.637885 
0.838104 -0.476164 0.101690 
0.329300 -0.754809 -0.525652 
0.661365 -0.194680 -0.677816 
-0.613393 -0.653377 0.428031 
0.689061 0.465677 0.489020 
-0.396104 0.894102 0.070710 
-0.403129 0.338897 0.832787 
-0.428341 0.379129 -0.796869 
0.473115 0.833405 -0.087997 
0.483406 0.571088 0.613518 
0.202981 0.467515 -0.824901 
0.200502 -0.911766 -0.302205 
0.372563 -0.359485 -0.829401 
-0.394740 0.880177 -0.151871 
0.352438 -0.630369 -0.659406 
0.239298 0.185611 -0.924127 
-0.260762 0.856871 0.394802 
0.061652 -0.177765 0.961246 
0.402381 -0.882964 0.131182 
0.030504 0.563854 -0.793231 
0.753654 0.460218 0.378739 
-0.082393 0.182734 -0.956502 
0.534091 0.702792 -0.379344 
-0.350913 0.248014 -0.881832 
0.703726 0.448416 -0.486259 
0.768826 0.256207 -0.521439 
-0.539310 0.815248 0.111700 
-0.923839 -0.267117 -0.256580 
0.601091 -0.211189 0.733988 
-0.929033 -0.200228 -0.290578 
0.762351 -0.552053 -0.230966 
-0.540440 0.360318 -0.739963 
-0.026813 -0.978157 0.126495 
-0.191687 -0.438302 0.863831 
-0.299066 -0.931907 0.158905 
-0.289428 -0.662740 0.673150 
-0.245678 -0.953864 -0.121515 
-0.302641 -0.533501 0.776191 
-0.546431 -0.381207 -0.735671 
0.025488 0.414706 -0.884967 
0.783235 -0.285220 -0.492435 
-0.742766 0.521261 -0.396716 
-0.939996 0.123907 -0.295812 
-0.553147 -0.601867 -0.559125 
0.336285 0.815371 0.395203 
0.334262 -0.809993 0.438973 
0.687571 0.661099 0.142974 
0.789712 0.546391 -0.011796 
0.778891 -0.110771 -0.558689 
0.874727 -0.369097 -0.192757 
-0.706232 0.466196 0.511099 
-0.159660 0.371880 0.891789 
-0.682794 0.657900 -0.261653 
0.546813 -0.188624 -0.777554 
-0.204882 -0.922571 0.289433 
0.399287 -0.235984 -0.856187 
0.133650 -0.942513 0.252700 
-0.427110 -0.843585 -0.299089 
0.032028 0.785438 0.569889 
-0.308044 -0.251188 0.905168 
0.876886 -0.053380 -0.393640 
-0.761918 -0.640595 -0.023124 
0.499111 0.504722 0.655073 
-0.172399 0.599724 0.753096 
0.210695 0.945250 -0.000288 
-0.324757 -0.729103 0.586454 
0.269243 -0.419332 -0.836935 
-0.692395 -0.134431 -0.694903 
0.739578 0.597360 0.144225 
-0.532495 0.012825 0.831458 
-0.439897 -0.634021 0.627540 
0.139654 -0.686909 0.687734 
-0.542020 -0.804068 0.221867 
0.450032 -0.795015 0.348311 
0.561950 0.080774 -0.781222 
0.209565 -0.152989 0.945941 
-0.902111 -0.100865 -0.405159 
0.499282 0.767490 -0.296761 
-0.977092 0.056049 0.190703 
-0.962116 0.169773 -0.182608 
0.893395 0.032126 0.367993 
-0.748680 0.033737 0.652858 
-0.652403 0.729655 0.125525 
0.866852 0.412629 0.062338 
-0.317084 0.661391 0.650435 
0.309140 0.873020 0.282085 
-0.046234 0.869017 0.433723 
-0.460017 0.060687 0.872795 
-0.158541 0.871210 0.411302 
-0.132041 -0.779288 -0.590131 
-0.913423 0.089772 0.372497 
0.180720 -0.864480 0.435187 
-0.419534 -0.464343 0.769364 
-0.458935 -0.073743 0.872834 
-0.605537 -0.784970 -0.083461 
0.585198 -0.567429 -0.529489 
-0.807050 -0.572476 0.102320 
0.936470 -0.169461 -0.156318 
0.707048 -0.160703 -0.639284 
-0.032663 -0.616901 -0.764834 
-0.846427 -0.070171 -0.513049 
-0.259360 -0.001644 0.947219 
-0.703165 0.181519 0.679188 
0.319759 -0.327819 0.863815 
0.483522 -0.829287 -0.188265 
0.264641 0.726903 -0.581427 
-0.722434 0.605354 0.291774 
-0.229290 0.294918 -0.906087 
-0.130459 -0.184265 0.959523 
0.647235 0.352608 -0.617542 
0.895325 0.168690 0.308035 
0.712431 0.494452 0.424381 
0.224141 0.555507 0.766877 
0.377701 -0.422175 -0.794038 
-0.666020 -0.211410 -0.710028 
0.341785 0.508941 -0.746163 
0.250904 -0.049104 -0.941766 
-0.226376 0.215803 0.930823 
0.571638 0.535523 -0.564145 
-0.176704 0.833040 0.475232 
0.293352 -0.507725 -0.783082 
0.049418 -0.867311 -0.460864 
-0.235887 0.340108 0.891458 
-0.526446 -0.657307 -0.528517 
-0.819095 0.414010 -0.364926 
0.509019 -0.832200 0.070278 
0.563498 -0.474385 0.637605 
0.388555 -0.143192 0.883396 
-0.526782 0.168901 -0.811224 
-0.751564 0.267711 -0.585789 
-0.964889 -0.123436 0.206485 
0.094929 0.612032 0.755500 
-0.128108 -0.696360 -0.685900 
0.641095 -0.412792 -0.602044 
0.007469 0.785880 -0.576608 
0.734911 0.207814 -0.588496 
-0.996006 0.008643 -0.023346 
0.699282 -0.619906 0.275111 
-0.164973 -0.729438 0.648567 
-0.042753 0.834060 0.507898 
-0.231433 0.787382 -0.531845 
0.336002 0.685965 0.591167 
-0.934020 0.244907 -0.236882 
-0.801721 -0.488208 0.340938 
0.617796 0.576509 -0.462645 
-0.170571 -0.340781 -0.905456 
-0.699856 0.446332 -0.539945 
-0.509031 -0.543984 -0.652286 
-0.364405 0.867972 0.267852 
-0.770914 0.412639 -0.448178 
0.635918 -0.738866 0.045747 
-0.042811 -0.969993 0.188025 
-0.835915 0.003947 -0.532417 
0.439805 -0.805664 -0.333377 
-0.763835 0.602776 0.173359 
0.782161 -0.570898 -0.036584 
-0.042452 -0.681045 0.713025 
0.109398 0.300586 -0.917527 
0.216067 0.824712 -0.458636 
0.186861 0.228508 -0.928026 
-0.234246 -0.331696 -0.898857 
0.430415 0.138655 -0.856784 
0.167390 0.524714 0.801269 
0.290282 -0.913956 -0.195060 
-0.754602 0.633138 0.057138 
0.272749 -0.358647 -0.861786 
0.328989 -0.881485 0.284422 
-0.793479 0.210519 0.551366 
0.462633 0.710530 0.465574 
-0.654354 0.627677 -0.386615 
0.371925 -0.615369 0.664502 
0.871090 -0.325691 0.264842 
-0.749160 0.627177 -0.125289 
0.723444 -0.344980 -0.547140 
-0.390860 0.191764 -0.881358 
-0.667191 -0.446563 -0.585495 
-0.669854 -0.241398 0.694457 
0.208644 0.937133 -0.137508 
0.638772 0.499296 0.522538 
0.915104 -0.157164 -0.263336 
-0.378431 -0.847112 -0.349260 
0.291933 0.898723 0.209517 
-0.776715 -0.338482 0.523733 
0.636540 0.712166 0.086166 
0.183134 0.141701 -0.944858 
-0.703687 -0.379244 -0.590245 
0.131947 -0.351305 -0.903598 
-0.643063 0.296866 -0.688029 
0.023178 0.970127 0.060883 
-0.649512 -0.513245 -0.547442 
-0.392397 0.838989 0.318742 
-0.878470 -0.049176 0.469972 
0.557143 -0.326647 0.728078 
-0.436703 -0.860840 0.231556 
-0.701422 -0.583055 0.400039 
-0.237237 -0.602485 0.748743 
-0.725954 -0.042609 0.675096 
-0.069981 0.572016 0.792445 
-0.079307 0.943893 -0.227153 
0.460118 -0.080344 0.854659 
0.596063 -0.123695 0.755668 
-0.791966 0.222332 -0.554140 
0.914892 0.213908 0.205286 
-0.988329 -0.104523 -0.086587 
-0.641106 0.159617 -0.733935 
-0.001190 0.918763 -0.318238 
-0.171952 -0.918273 -0.305388 
-0.391964 0.702700 -0.556994 
-0.581116 -0.641502 0.486241 
0.359816 -0.264569 0.869021 
-0.039342 -0.602032 0.780212 
0.229893 -0.710249 -0.634904 
0.441424 0.526679 0.680844 
0.574994 -0.519794 0.593384 
0.935091 -0.245433 0.074804 
-0.477632 -0.063389 -0.858833 
0.608733 -0.669595 -0.361241 
-0.489991 -0.168751 -0.840645 
0.899849 0.333724 0.066365 
0.639081 -0.148897 0.714009 
0.152178 -0.739725 0.632249 
-0.892899 0.223883 0.374529 
0.334259 -0.685274 -0.613330 
-0.303703 -0.351334 -0.869841 
-0.446264 -0.881168 -0.091891 
0.776171 0.174824 -0.540486 
0.551017 0.775204 0.153426 
-0.602227 -0.233054 -0.749011 
-0.420229 0.392921 0.799898 
0.017054 -0.940504 -0.295244 
-0.321584 -0.932271 -0.089680 
0.586377 -0.778949 0.024325 
0.606072 0.374987 0.650513 
0.889486 -0.370687 0.064627 
-0.638085 -0.765951 -0.031741 
-0.269652 -0.083610 -0.939980 
0.961842 0.009495 -0.016251 
0.911468 -0.211403 -0.226507 
-0.086388 0.453522 -0.860725 
0.671779 0.532983 -0.434428 
-0.552416 0.231078 0.786134 
-0.649369 0.230551 -0.709486 
-0.179931 0.799609 0.529713 
0.738851 -0.442586 0.449833 
-0.480570 -0.014508 0.863597 
-0.597824 0.454672 0.641970 
-0.778221 -0.282266 0.554007 
-0.371859 0.759495 0.503335 
-0.310434 -0.896839 -0.289103 
0.632767 0.623277 0.373578 
-0.784000 -0.387235 -0.474857 
0.418078 0.477046 -0.732259 
-0.379121 0.514600 0.746542 
-0.535353 0.074975 -0.825564 
0.376936 0.008537 -0.895493 
-0.735543 0.593011 -0.282080 
0.230183 -0.356649 0.882403 
-0.782999 0.501751 -0.338416 
-0.226972 -0.665105 0.693752 
0.130016 0.937352 -0.195323 
-0.951508 -0.093278 0.269746 
0.192607 -0.025416 -0.954949 
0.582082 -0.567829 0.536869 
0.220348 0.611755 -0.719969 
-0.085806 0.914449 0.321464 
-0.933717 -0.079103 -0.330411 
-0.631600 -0.767758 0.045805 
-0.681025 0.712635 -0.033722 
-0.165446 0.817802 -0.512169 
-0.880696 0.078325 0.459669 
-0.370973 -0.198937 -0.890168 
-0.136079 -0.266713 0.939976 
-0.125844 0.541187 0.805283 
0.098139 -0.784446 0.584808 
0.727854 0.352461 0.530494 
-0.589466 -0.389465 0.699592 
0.207025 -0.928006 0.244449 
-0.843305 0.069159 -0.521165 
0.053287 0.248308 -0.942926 
0.180134 0.383034 0.878006 
0.745217 -0.506358 -0.360652 
-0.504133 0.439902 -0.719483 
-0.239593 -0.187771 -0.935361 
0.082540 0.037089 0.974012 
-0.900707 -0.363857 -0.217450 
0.682601 -0.089382 0.684106 
-0.142471 0.783520 -0.561903 
0.338916 -0.686975 0.616532 
-0.315501 -0.852262 -0.393677 
-0.596437 0.281642 -0.731848 
0.512603 0.318194 -0.757591 
0.814212 -0.477638 0.218215 
-0.876604 -0.182002 -0.439218 
-0.274488 0.636113 -0.690683 
0.930096 -0.251359 -0.039931 
-0.121109 0.391209 -0.887966 
0.024819 -0.456239 0.870279 
0.068013 0.511108 0.830478 
0.280302 0.918227 -0.107049 
0.910060 -0.204764 0.247684 
0.953026 -0.114508 0.022389 
-0.122713 -0.030988 0.974736 
-0.190722 0.670679 -0.683053 
-0.078215 -0.102291 0.974150 
-0.815568 0.559818 -0.060486 
-0.997663 0.026570 0.040460 
-0.714033 -0.317024 -0.613140 
0.680548 0.020123 0.690931 
0.645644 0.441023 0.572608 
-0.152734 0.924301 0.273527 
0.320275 -0.916667 0.154293 
0.089696 -0.432776 0.878056 
-0.789914 -0.600869 0.035143 
-0.378958 -0.260722 0.874777 
-0.439526 -0.585494 0.671671 
0.889398 -0.352415 0.135630 
-0.575838 -0.702589 0.398755 
0.223125 0.864291 -0.370834 
-0.959396 -0.015628 0.263086 
0.382572 0.779081 -0.424860 
-0.705200 -0.267458 0.646401 
-0.113125 -0.936282 0.279896 
-0.356609 0.796352 0.446982 
0.605852 0.712846 -0.233733 
0.088506 -0.304669 -0.925558 
0.435424 0.731838 -0.455354 
-0.701874 0.689861 0.055623 
-0.917899 -0.046143 0.386967 
0.206289 0.694691 -0.645417 
-0.159003 0.512227 -0.816834 
0.678734 0.275627 -0.628511 
-0.390508 0.066541 0.904709 
0.840661 0.286830 0.372991 
0.368896 0.890661 -0.011117 
0.349922 -0.380629 0.828677 
-0.846393 0.516156 0.051279 
0.775030 0.523050 -0.229013 
0.523714 -0.557334 0.606425 
0.887732 -0.030684 0.381989 
0.747391 -0.166744 -0.589441 
-0.096120 -0.320195 -0.922960 
0.363401 0.476187 0.765734 
-0.695124 0.300935 -0.630428 
0.505046 -0.196308 0.807616 
-0.836947 0.441301 -0.298923 
-0.839804 0.508819 -0.115182 
-0.319973 -0.131480 -0.919132 
0.896976 -0.305648 0.185391 
0.009597 -0.924830 0.347202 
-0.941232 -0.314220 0.104341 
-0.616224 0.214478 0.743636 
0.290945 -0.409355 0.838613 
-0.757317 -0.227167 0.601899 
-0.165922 -0.179398 -0.951616 
0.618014 -0.320231 0.680112 
0.529665 -0.808405 -0.148644 
0.958472 0.013524 -0.108024 
-0.813293 -0.151349 -0.546363 
0.108734 -0.853078 -0.484270 
-0.675835 -0.713783 0.166680 
-0.249513 -0.267186 -0.914555 
0.603004 -0.721225 0.244298 
0.809514 -0.530618 0.063171 
-0.621575 -0.118354 -0.759838 
0.721330 -0.644766 0.047691 
0.055690 0.568974 0.790546 
-0.395341 0.499510 -0.750387 
0.701222 -0.673062 -0.041325 
0.367236 -0.710300 -0.563182 
-0.285794 0.617823 0.709783 
0.737211 0.007012 -0.621726 
-0.466464 0.565243 -0.648886 
0.934662 0.133158 -0.191355 
-0.385336 -0.834724 0.375968 
-0.035775 0.893492 -0.386734 
-0.805715 0.499119 -0.278617 
-0.035388 -0.973510 -0.174789 
0.839773 0.368387 -0.284666 
-0.698644 0.667534 -0.194219 
0.245725 -0.551927 -0.766827 
-0.160693 0.053864 -0.964276 
-0.022727 -0.294837 -0.934476 
-0.275253 -0.922538 0.245353 
-0.605647 -0.742843 0.288362 
0.196805 -0.591132 -0.752868 
0.624720 0.190037 -0.710513 
-0.233715 0.519704 -0.796589 
0.593810 0.680916 0.331406 
0.543953 -0.800997 0.118738 
-0.865872 0.379479 -0.292523 
0.391449 -0.418582 0.792444 
0.846118 -0.036259 -0.459091 
0.389664 -0.878494 -0.185015 
0.897009 -0.351900 -0.062308 
0.440349 -0.734372 0.471868 
0.076584 -0.952093 -0.228434 
0.385070 0.543859 -0.701299 
-0.061585 -0.532011 0.827299 
-0.849491 0.478045 0.151777 
-0.352368 -0.307012 -0.870746 
-0.187398 -0.968102 -0.097848 
-0.669298 0.585175 0.428580 
-0.152350 -0.906922 0.361662 
0.616960 0.430680 -0.601562 
-0.381636 0.215672 0.881017 
-0.788831 -0.536594 0.285468 
0.203174 -0.402134 -0.864575 
-0.752601 -0.645594 0.067254 
0.715570 0.085812 -0.644796 
-0.032424 -0.091692 -0.973442 
-0.743921 -0.570081 0.334529 
0.487439 0.124488 0.828166 
-0.777916 0.122531 -0.604149 
-0.110113 -0.968872 -0.161892 
0.439241 -0.366914 -0.787499 
0.738142 -0.099969 -0.610872 
0.119839 -0.544609 0.811756 
-0.090508 0.474541 0.849568 
0.806638 0.420020 -0.311333 
-0.985170 0.058813 0.125967 
-0.435768 0.870327 0.127409 
0.531409 -0.028926 0.815014 
-0.349327 0.611812 -0.679754 
-0.492136 -0.447883 0.736524 
0.228695 -0.787667 0.536745 
0.226847 -0.653827 0.695913 
0.580392 -0.409637 0.665498 
0.292342 -0.116985 -0.921223 
-0.444026 -0.763392 0.457665 
0.729043 0.076100 0.635459 
-0.444754 -0.135593 -0.870197 
0.920046 0.270790 0.028487 
0.348947 0.885340 0.177419 
-0.451821 -0.800637 0.376566 
-0.614474 0.745076 -0.181707 
-0.650797 0.468554 0.576596 
-0.462313 0.337854 0.802345 
-0.062993 -0.714859 -0.672508 
-0.912030 0.267221 -0.298566 
-0.520829 0.831257 -0.062309 
-0.167584 -0.126000 0.962948 
0.916903 0.158714 0.241360 
0.042230 -0.834680 -0.519492 
0.699181 -0.578112 -0.344794 
0.431890 -0.252869 0.840127 
-0.340146 0.893976 -0.200416 
0.807331 0.193348 -0.488436 
-0.707286 -0.635530 -0.297849 
0.308056 -0.120972 0.919699 
-0.387895 0.712081 0.556233 
0.279401 0.841656 0.381355 
-0.927158 -0.333117 -0.161875 
0.955983 0.077635 -0.051751 
-0.111853 -0.125378 -0.965975 
-0.233291 0.107616 -0.944665 
0.869003 0.389198 -0.122826 
0.672501 0.317255 0.616789 
-0.945300 -0.271609 -0.167155 
-0.114042 -0.871076 -0.448527 
0.218666 -0.753485 0.590563 
0.036189 -0.979912 0.105113 
0.842147 0.099225 0.462426 
-0.897373 0.356071 0.228347 
0.771725 -0.233658 -0.535115 
0.223861 0.777790 -0.530729 
-0.450541 -0.834467 0.297360 
-0.449640 -0.760838 -0.449916 
-0.051981 -0.166379 -0.964927 
-0.703407 -0.686737 -0.151150 
0.134366 -0.936850 -0.250256 
0.700892 -0.148832 0.656150 
-0.982287 0.145710 0.074690 
0.144816 0.330709 0.905558 
-0.814994 0.543409 0.137318 
0.233707 -0.703538 0.647041 
-0.575069 -0.456555 0.667818 
-0.045393 -0.671556 -0.718376 
0.841867 -0.311385 0.365984 
0.861463 0.022301 -0.427727 
-0.477537 0.148802 0.853879 
-0.003791 -0.888950 0.427262 
0.744018 0.605940 0.004602 
0.583417 -0.436078 -0.645154 
-0.707189 -0.557907 -0.423315 
0.939660 0.165617 -0.124585 
-0.474792 -0.859474 -0.145315 
0.457826 -0.489889 0.708040 
-0.871386 0.383226 0.283126 
0.414568 0.294733 -0.825102 
0.771617 -0.535805 0.241532 
0.139290 0.119682 0.960418 
-0.065247 -0.726293 0.663655 
0.423163 0.389101 -0.778569 
-0.613796 0.568378 -0.520979 
-0.471383 0.487180 0.716160 
-0.379530 -0.178024 0.895853 
-0.963812 0.111995 -0.217679 
-0.203704 0.947517 -0.130076 
-0.662390 -0.732819 -0.108662 
0.343429 -0.853239 0.339378 
-0.441117 -0.509930 0.727819 
-0.588599 0.619409 -0.485960 
-0.472185 -0.397308 0.772779 
-0.886344 0.268917 -0.356670 
-0.596652 -0.646920 -0.461845 
0.277092 0.036950 -0.931256 
0.747702 -0.375176 -0.488489 
0.775598 -0.568594 -0.129811 
0.944902 -0.016725 0.193672 
0.229718 -0.009493 0.947593 
0.597493 -0.020261 -0.759627 
0.547711 -0.754435 0.295322 
-0.162580 -0.843531 0.488606 
-0.367725 0.825407 0.382157 
-0.655044 -0.601831 0.443373 
0.935948 -0.205751 0.127472 
-0.965180 0.052013 -0.240808 
-0.165149 0.952029 0.134606 
0.476888 -0.806669 -0.277823 
-0.074690 -0.987494 0.003740 
-0.345621 -0.535945 -0.753698 
0.681820 0.376537 -0.568937 
0.343394 -0.904600 -0.142416 
-0.716942 -0.116741 0.678396 
0.244928 0.420125 0.843387 
-0.635927 -0.294202 -0.700169 
0.394192 0.818625 0.339964 
-0.247622 -0.782274 -0.551610 
0.165215 -0.335161 0.905351 
0.621548 -0.253336 -0.699213 
0.576127 -0.621797 -0.478538 
-0.579085 -0.322623 0.739999 
-0.314904 0.520098 0.772956 
0.380868 0.760381 0.468667 
0.194662 0.054976 -0.950553 
0.570289 0.430762 0.652455 
-0.116427 0.664797 -0.704668 
0.665656 0.073300 -0.705259 
-0.940628 -0.258119 0.213225 
-0.005981 0.194235 -0.955324 
-0.586250 0.105930 -0.784047 
0.536948 0.148999 0.796078 
-0.922329 -0.150746 -0.336891 
0.810560 0.517102 0.066883 
0.330112 -0.924104 0.009582 
0.063692 0.363718 -0.900543 
-0.827848 -0.342616 -0.430892 
0.414800 0.656973 0.570838 
0.419390 -0.881792 -0.071472 
-0.388192 0.142717 0.899556 
0.944402 -0.184148 0.002321 
0.543292 0.033896 0.802448 
0.421059 0.765235 0.413985 
0.677547 -0.335872 -0.603703 
-0.699870 0.149819 -0.682218 
0.941357 0.051474 0.209476 
0.469899 -0.593320 0.616371 
0.788301 -0.351166 -0.432265 
-0.475364 0.502804 -0.695683 
0.867164 0.392733 0.141255 
-0.749231 -0.506504 -0.418719 
0.370362 0.650565 -0.612003 
-0.308625 -0.940675 0.021846 
-0.219034 0.920255 0.240733 
-0.379626 -0.902502 -0.176086 
-0.847398 -0.161712 0.494454 
-0.582015 -0.603529 0.537920 
0.317914 -0.054265 0.920790 
-0.920317 0.237254 0.286759 
0.427409 -0.644160 0.599957 
0.781080 0.319594 0.465416 
-0.809088 -0.579313 -0.035726 
-0.681328 0.627246 0.341967 
-0.848447 -0.369057 -0.366935 
0.739571 0.281342 0.550953 
-0.692209 -0.714631 -0.031195 
0.523865 0.425407 0.699935 
-0.378770 0.661282 0.618008 
0.520659 -0.441301 -0.691390 
0.813412 -0.514015 -0.123355 
-0.793788 0.571077 -0.143663 
-0.355214 -0.325138 0.865103 
-0.550036 0.710345 0.399131 
-0.627988 -0.422860 0.644413 
0.854558 -0.435303 -0.128147 
0.421089 0.838587 -0.228251 
-0.866097 0.450479 -0.157157 
-0.545811 0.543730 0.613288 
-0.503226 -0.733907 0.444506 
0.266967 0.921529 0.114988 
0.724782 -0.229602 -0.598019 
0.147732 -0.406098 0.881631 
-0.316438 -0.650586 -0.671469 
0.504253 0.544319 -0.619066 
0.503132 0.693873 -0.441260 
0.087428 -0.485393 -0.846464 
0.228973 -0.212897 0.927140 
0.773298 0.417549 -0.386243 
-0.698494 -0.673439 -0.223902 
0.919515 -0.002665 0.288385 
0.051547 -0.245401 -0.948908 
-0.902348 -0.363363 0.216642 
0.392211 -0.898614 0.045486 
0.733633 0.216651 0.585137 
0.323586 0.245085 -0.883436 
-0.093880 -0.954577 -0.232846 
0.392312 -0.842739 -0.302865 
-0.014047 0.939292 -0.258580 
-0.186404 0.670714 0.686381 
0.779514 0.554293 0.108325 
0.785587 -0.492406 0.293082 
0.010533 -0.121636 0.972318 
0.046159 0.302723 0.927937 
-0.760397 0.274957 0.571202 
0.677225 -0.675627 0.178909 
0.339486 -0.310017 -0.857606 
0.713896 -0.337884 0.564991 
0.850995 0.447612 0.011239 
0.948381 0.100110 -0.126868 
0.858737 0.308069 -0.303948 
0.122365 -0.922677 -0.311172 
0.617233 -0.367007 -0.650343 
-0.338781 0.914511 0.029204 
-0.313106 0.670762 -0.640193 
-0.657814 -0.364019 0.652767 
0.348064 0.735785 0.521188 
0.182020 -0.892460 0.374541 
-0.945413 -0.007026 -0.303327 
0.768285 -0.577940 0.112678 
0.503070 -0.812892 0.202803 
-0.669400 0.253894 0.683040 
-0.687430 -0.486973 0.536943 
0.133435 -0.431319 -0.868659 
-0.515976 -0.320765 -0.779181 
-0.875533 0.452429 0.079756 
0.074730 0.871346 -0.422762 
0.100884 -0.360480 0.907666 
0.948378 0.042911 -0.165117 
-0.429805 -0.892260 0.037580 
0.388276 0.520162 0.719007 
0.404256 -0.144985 -0.870782 
0.439681 0.004887 -0.865351 
-0.681460 0.408465 0.588856 
-0.886257 0.182988 -0.404773 
0.035698 -0.983669 -0.071162 
-0.342617 0.352043 0.855575 
-0.050146 -0.474560 -0.856680 
0.771573 -0.582615 0.029308 
-0.039266 -0.847232 -0.504565 
-0.877349 0.310203 0.345949 
-0.550783 -0.491032 -0.659872 
0.936756 0.140985 0.153462 
-0.880809 -0.356815 -0.296612 
0.505093 0.796078 0.204535 
0.831858 0.288265 -0.387637 
0.122347 -0.906504 0.358175 
0.867252 0.224236 -0.352364 
-0.286328 0.227849 -0.910092 
-0.046117 -0.342405 0.920787 
0.000903 -0.799546 0.579294 
0.204499 0.940807 0.124492 
-0.131401 -0.526439 0.824197 
-0.302307 0.895163 0.263444 
-0.605780 -0.507661 -0.595703 
0.201141 -0.960191 0.029882 
0.539381 -0.815042 -0.011397 
0.080471 0.133701 -0.966867 
0.204828 0.854468 0.408167 
-0.899258 0.394148 0.118469 
-0.510956 -0.808049 0.278257 
-0.499390 -0.603970 0.609944 
0.065986 -0.931124 0.314646 
-0.198174 0.717375 0.633740 
0.051113 -0.982888 0.015426 
-0.040179 0.961984 0.128607 
0.783059 -0.451883 0.348220 
-0.806811 0.264742 0.517622 
0.644668 -0.483209 -0.542363 
-0.830963 0.171972 -0.510837 
0.504852 -0.671548 0.494424 
0.206391 0.943673 -0.066328 
0.308499 0.371550 0.845793 
0.000533 0.321314 -0.920422 
0.719649 -0.006545 0.647918 
0.920958 0.072645 0.270993 
-0.000943 0.951361 -0.197684 
0.101277 0.687422 -0.680698 
0.623093 -0.163572 -0.726788 
0.908874 -0.081093 -0.308699 
0.614921 0.116688 -0.736801 
-0.672484 -0.038463 0.727773 
-0.865677 0.015589 0.491544 
-0.310641 -0.441586 0.827171 
0.053958 -0.871379 0.455069 
-0.162438 -0.735233 -0.636409 
0.335107 -0.917520 -0.080890 
0.593844 0.706514 0.270388 
-0.598184 0.294100 0.731919 
0.391041 -0.078054 0.889131 
-0.861493 -0.486220 -0.125905 
-0.193025 -0.555373 -0.787215 
-0.952750 -0.252403 0.144808 
-0.134205 -0.951877 0.216624 
0.440733 0.855353 0.000705 
0.200913 0.920847 0.219436 
0.200747 -0.111372 -0.948386 
-0.934282 -0.087086 0.335681 
0.212402 -0.418658 0.863028 
0.768131 -0.307558 0.505896 
-0.917081 0.341721 0.164319 
-0.220858 -0.748964 -0.605883 
0.123910 -0.862219 0.464830 
0.018859 0.019045 0.979933 
-0.252466 0.498002 0.806482 
-0.884776 0.428465 -0.097225 
0.340555 0.859365 -0.281317 
0.774589 -0.508029 -0.275282 
0.691900 0.199254 -0.642505 
-0.735291 0.465946 -0.461386 
-0.775665 -0.130071 0.606562 
-0.027650 0.896335 0.374128 
0.949046 0.152291 -0.033023 
0.571250 0.622550 -0.471044 
-0.797987 -0.066877 0.591242 
-0.321990 0.049359 0.928676 
0.599454 0.746139 -0.121284 
-0.934937 0.263062 0.204132 
-0.094674 -0.254533 -0.941521 
-0.213642 0.950660 0.022692 
0.887860 -0.212540 -0.311787 
-0.225892 -0.320306 0.905876 
-0.771710 0.108210 0.607838 
0.096668 -0.239686 0.947007 
0.687228 0.673160 -0.032603 
0.546055 0.754135 0.260560 
0.014884 -0.144627 -0.965620 
0.936655 -0.103306 -0.190611 
-0.064769 -0.761739 -0.623697 
-0.031891 -0.762189 0.622531 
0.407445 0.586354 -0.654625 
-0.737863 0.002703 -0.661521 
0.119094 -0.974497 0.058315 
-0.731745 -0.459197 0.497104 
-0.024992 -0.390069 -0.901495 
0.817969 0.086418 -0.495989 
-0.678516 -0.174547 0.705253 
-0.590712 0.184231 -0.764144 
0.036618 -0.450116 -0.869544 
0.296550 0.846811 -0.358797 
-0.982289 -0.169620 -0.067138 
0.302269 -0.843296 0.395529 
0.402911 -0.335142 0.825001 
0.011050 0.613472 -0.752750 
0.284018 -0.666441 0.659416 
-0.869880 -0.197289 0.442765 
-0.489367 0.553158 0.652312 
-0.010457 0.510464 -0.827234 
-0.977530 -0.118146 -0.155154 
-0.877170 0.414967 0.184320 
0.506592 0.817986 -0.033358 
0.295448 0.485921 -0.783951 
0.183698 -0.962232 -0.077921 
-0.144056 0.946310 -0.192033 
-0.846378 -0.348005 0.395814 
0.921843 0.059905 -0.262150 
-0.705171 -0.331540 0.618875 
-0.991387 0.071484 -0.007847 
0.797841 0.333053 -0.427028 
-0.645326 -0.543112 0.528500 
-0.386224 -0.814254 -0.413471 
0.697987 0.653591 -0.093650 
-0.680532 0.402584 -0.590551 
0.097043 0.918241 -0.290623 
0.031358 0.870480 0.428664 
0.486445 0.313259 0.775195 
-0.076564 -0.028028 -0.975858 
-0.809933 0.072953 0.563254 
-0.369538 -0.923284 0.050612 
-0.929877 0.340019 -0.024946 
0.074193 0.903008 -0.355826 
-0.914093 -0.153034 0.369361 
-0.327050 0.142892 0.923833 
-0.966162 -0.231685 -0.086656 
0.882496 -0.403555 -0.002674 
-0.506537 -0.526308 0.670054 
-0.919877 0.023659 0.372343 
-0.838944 -0.196935 -0.494086 
-0.281540 -0.016491 -0.945142 
-0.373308 -0.875250 -0.273761 
0.880873 -0.164042 -0.354365 
0.264453 0.835212 -0.417314 
-0.095969 0.323393 -0.915285 
-0.789622 -0.332362 -0.509176 
-0.323199 0.866140 -0.317307 
0.711286 -0.604521 -0.281668 
-0.559303 0.736354 0.332393 
0.094611 -0.973443 0.137564 
0.869437 0.199551 0.363239 
-0.700761 0.232336 -0.656471 
-0.183297 0.400477 -0.872747 
-0.491596 0.234858 0.824571 
-0.024815 -0.983338 0.059051 
-0.202440 0.542884 0.789004 
0.336535 0.426973 0.805514 
0.593676 0.549355 0.526592 
-0.799072 -0.201787 0.561531 
0.075170 -0.105938 0.970131 
-0.765906 0.595070 -0.196125 
-0.787887 0.289262 -0.524350 
-0.165808 -0.895817 -0.375086 
0.397979 0.419597 0.780172 
-0.045753 -0.473055 0.862077 
-0.271925 0.106714 0.944402 
-0.848671 0.241680 -0.457355 
0.507262 0.096847 -0.818901 
-0.236887 0.744656 0.589001 
0.157166 -0.491930 -0.834623 
0.157084 -0.806965 0.537147 
0.727668 0.280946 -0.566854 
0.923584 0.231670 -0.130356 
-0.845084 0.091100 0.511042 
-0.622989 0.754009 -0.110302 
-0.921973 -0.373249 -0.099361 
0.376124 0.059127 0.895376 
0.354817 -0.756534 0.512056 
-0.230247 -0.876168 -0.398009 
0.133366 0.962592 -0.023654 
0.867630 -0.378945 0.210398 
-0.084799 0.044987 -0.975219 
-0.184892 0.219202 -0.938452 
-0.815922 -0.140155 0.551518 
-0.344289 0.332331 -0.852642 
0.620481 0.734674 -0.016340 
-0.612353 0.667056 0.383739 
0.662309 0.525404 0.466155 
-0.679740 -0.682005 0.256742 
-0.153200 -0.613192 -0.754457 
-0.312527 0.712961 -0.592083 
0.779944 -0.370296 0.440226 
0.489698 -0.372058 0.759437 
0.827707 0.021744 -0.489671 
0.766094 0.024911 0.588267 
-0.495811 -0.839538 0.196471 
0.525096 0.805719 0.082433 
0.934517 -0.152370 0.201005 
-0.096158 0.822451 -0.510081 
0.294868 0.920569 0.055723 
-0.931087 0.196273 -0.284455 
0.111198 -0.800397 -0.557446 
-0.314618 -0.380313 0.856352 
0.622229 -0.419437 0.616472 
0.135495 -0.012291 0.969275 
0.825051 -0.428897 0.274527 
-0.179767 -0.939888 -0.239955 
-0.967931 -0.239867 0.050481 
-0.474366 0.855612 0.071691 
0.938328 0.177088 0.094775 
-0.417802 0.541553 -0.704223 
0.856715 0.155830 0.416206 
-0.091548 0.374609 0.900129 
-0.772908 0.056843 -0.618103 
0.199659 -0.498999 0.819474 
0.061783 0.063959 -0.971686 
0.147940 -0.724680 -0.643673 
0.288945 -0.845230 -0.400491 
0.533032 -0.402424 0.710215 
0.106324 -0.976373 -0.095546 
0.051139 -0.666005 0.720885 
-0.801057 0.322029 0.487226 
-0.263752 0.884313 0.325881 
-0.673094 0.705333 -0.149446 
0.392116 0.878628 -0.079956 
-0.558137 0.751736 -0.306592 
-0.249951 -0.956448 -0.046832 
0.685485 0.624022 -0.254966 
0.165181 -0.254391 0.932544 
-0.042218 0.952878 0.197466 
0.409652 -0.734064 -0.497331 
0.096104 -0.015862 -0.970879 
0.502906 -0.678818 -0.488486 
-0.491581 0.768219 -0.359150 
0.349200 0.298671 -0.854215 
-0.038940 0.300279 0.930372 
-0.757445 0.207174 -0.605095 
0.645885 0.508217 -0.504233 
-0.108818 0.855529 0.455086 
0.889617 -0.267910 -0.254220 
-0.518435 0.313274 -0.779020 
0.253029 -0.933943 0.169478 
0.767508 0.462570 -0.341191 
0.869572 -0.341344 -0.252279 
-0.205896 -0.946851 0.206015 
0.559611 -0.082836 0.791112 
0.325429 -0.866408 -0.319217 
0.081489 0.796249 -0.548779 
0.734500 0.577052 -0.232937 
-0.208894 0.091317 0.955756 
-0.047108 -0.411862 0.895724 
-0.237529 -0.546240 0.791174 
-0.873752 -0.387689 0.272901 
0.139787 -0.103371 0.963797 
-0.942187 -0.020079 0.325533 
-0.056033 -0.902407 -0.398617 
0.556656 -0.768263 0.231276 
-0.625081 0.049880 -0.764104 
0.496115 -0.519554 0.659646 
-0.524149 0.792258 -0.239484 
-0.110321 0.964934 0.068948 
-0.045881 0.797448 0.560053 
-0.001043 0.382685 0.900343 
0.678235 -0.250639 -0.639246 
0.913534 0.274798 0.099218 
0.575875 -0.666047 -0.418723 
0.451603 0.068245 -0.856812 
0.059052 -0.091393 -0.970655 
-0.776584 -0.426494 0.459076 
0.608696 -0.044065 0.756521 
-0.701781 0.050143 0.700160 
0.346562 0.880787 -0.191287 
-0.015247 -0.814279 -0.555269 
0.360323 -0.879553 -0.245208 
-0.518527 -0.822421 -0.203621 
-0.379378 -0.644162 0.652290 
0.815771 -0.519891 -0.059904 
0.028787 0.960156 0.135492 
-0.906313 0.398940 -0.037218 
0.491542 0.189206 0.817405 
0.097153 0.943364 0.204364 
-0.468573 -0.721099 0.501960 
-0.786941 -0.581118 0.197975 
-0.172900 -0.967935 0.099603 
-0.104081 -0.585242 0.789652 
0.715000 0.478125 -0.428609 
0.127791 0.374445 -0.886950 
0.429917 0.147242 0.856365 
0.546104 0.260989 0.751808 
0.012750 -0.775609 -0.605570 
-0.642351 0.384919 -0.644855 
-0.307936 -0.243159 -0.903102 
0.919633 0.276448 -0.037936 
0.112741 0.959389 -0.083646 
0.266539 -0.744980 -0.581696 
0.949840 -0.118998 0.091151 
0.786842 0.236711 0.510050 
-0.530205 0.652881 -0.507442 
